-0.004068 -0.005938 -0.000689 1673511863.520983
-0.004077 -0.005950 -0.000693 1673511863.525783
-0.004086 -0.005963 -0.000697 1673511863.530778
-0.004095 -0.005975 -0.000702 1673511863.535768
-0.004104 -0.005988 -0.000706 1673511863.540815
-0.004113 -0.006001 -0.000711 1673511863.545779
-0.004122 -0.006013 -0.000715 1673511863.550760
-0.004132 -0.006028 -0.000720 1673511863.556542
-0.004140 -0.006039 -0.000724 1673511863.560863
-0.004149 -0.006051 -0.000728 1673511863.565767
-0.004158 -0.006064 -0.000732 1673511863.570788
-0.004167 -0.006076 -0.000737 1673511863.575756
-0.004176 -0.006089 -0.000741 1673511863.580867
-0.004185 -0.006101 -0.000746 1673511863.585777
-0.004194 -0.006114 -0.000750 1673511863.590816
-0.004203 -0.006127 -0.000754 1673511863.595781
-0.004212 -0.006139 -0.000759 1673511863.600832
-0.004221 -0.006152 -0.000763 1673511863.605751
-0.004230 -0.006164 -0.000767 1673511863.610755
-0.004004 -0.004091 -0.000766 1673511863.622997
-0.004004 -0.004089 -0.000766 1673511863.623108
-0.004003 -0.004047 -0.000768 1673511863.625765
-0.004001 -0.003965 -0.000772 1673511863.630873
-0.003999 -0.003887 -0.000776 1673511863.635772
-0.003997 -0.003807 -0.000780 1673511863.640769
-0.003995 -0.003728 -0.000784 1673511863.645750
-0.003993 -0.003647 -0.000788 1673511863.650787
-0.003991 -0.003567 -0.000791 1673511863.655800
-0.003990 -0.003486 -0.000795 1673511863.660848
-0.003988 -0.003407 -0.000799 1673511863.665800
-0.003986 -0.003325 -0.000803 1673511863.670926
-0.003984 -0.003248 -0.000807 1673511863.675780
-0.003982 -0.003168 -0.000811 1673511863.680788
-0.003980 -0.003087 -0.000815 1673511863.685850
-0.003978 -0.003007 -0.000818 1673511863.690818
-0.003976 -0.002928 -0.000822 1673511863.695771
-0.003974 -0.002847 -0.000826 1673511863.700828
-0.003972 -0.002767 -0.000830 1673511863.705837
-0.003971 -0.002688 -0.000834 1673511863.710799
-0.003969 -0.002605 -0.000838 1673511863.715969
-0.002864 -0.002293 -0.000670 1673511863.724463
-0.002852 -0.002271 -0.000669 1673511863.725748
-0.002801 -0.002183 -0.000665 1673511863.730756
-0.002751 -0.002095 -0.000661 1673511863.735779
-0.002701 -0.002007 -0.000657 1673511863.740793
-0.002651 -0.001919 -0.000654 1673511863.745816
-0.002601 -0.001832 -0.000650 1673511863.750798
-0.002550 -0.001743 -0.000646 1673511863.755851
-0.002501 -0.001657 -0.000642 1673511863.760756
-0.002451 -0.001569 -0.000639 1673511863.765785
-0.002401 -0.001481 -0.000635 1673511863.770811
-0.002351 -0.001393 -0.000631 1673511863.775800
-0.002292 -0.001291 -0.000627 1673511863.781661
-0.002251 -0.001218 -0.000623 1673511863.785796
-0.002200 -0.001129 -0.000620 1673511863.790868
-0.002151 -0.001043 -0.000616 1673511863.795769
-0.002100 -0.000955 -0.000612 1673511863.800836
-0.002050 -0.000867 -0.000608 1673511863.805814
-0.002000 -0.000780 -0.000604 1673511863.810809
-0.003260 -0.003057 -0.000825 1673511863.824221
-0.003260 -0.003057 -0.000825 1673511863.824332
-0.003264 -0.003064 -0.000827 1673511863.825772
-0.003275 -0.003087 -0.000833 1673511863.830783
-0.003287 -0.003111 -0.000839 1673511863.835774
-0.003298 -0.003134 -0.000846 1673511863.840814
-0.003310 -0.003158 -0.000852 1673511863.845818
-0.003322 -0.003181 -0.000859 1673511863.850796
-0.003333 -0.003204 -0.000865 1673511863.855791
-0.003345 -0.003227 -0.000871 1673511863.860768
-0.003356 -0.003251 -0.000878 1673511863.865799
-0.003368 -0.003274 -0.000884 1673511863.870807
-0.003379 -0.003298 -0.000890 1673511863.875811
-0.003392 -0.003323 -0.000897 1673511863.881226
-0.003402 -0.003344 -0.000903 1673511863.885755
-0.003414 -0.003368 -0.000910 1673511863.890818
-0.003425 -0.003391 -0.000916 1673511863.895806
-0.003437 -0.003415 -0.000923 1673511863.901036
-0.003449 -0.003438 -0.000929 1673511863.905821
-0.003460 -0.003461 -0.000935 1673511863.910786
-0.003472 -0.003484 -0.000942 1673511863.915780
-0.003617 -0.004841 -0.000678 1673511863.922421
-0.003628 -0.004897 -0.000674 1673511863.925795
-0.003646 -0.004981 -0.000669 1673511863.930808
-0.003663 -0.005064 -0.000663 1673511863.935801
-0.003681 -0.005149 -0.000657 1673511863.940859
-0.003698 -0.005231 -0.000651 1673511863.945808
-0.003715 -0.005314 -0.000645 1673511863.950787
-0.003733 -0.005397 -0.000639 1673511863.955764
-0.003750 -0.005481 -0.000633 1673511863.960796
-0.003768 -0.005564 -0.000627 1673511863.965785
-0.003785 -0.005648 -0.000621 1673511863.970809
-0.003802 -0.005731 -0.000615 1673511863.975794
-0.003820 -0.005814 -0.000610 1673511863.980776
-0.003837 -0.005897 -0.000604 1673511863.985784
-0.003855 -0.005981 -0.000598 1673511863.990779
-0.003872 -0.006064 -0.000592 1673511863.995798
-0.003889 -0.006147 -0.000586 1673511864.000777
-0.003907 -0.006231 -0.000580 1673511864.005795
-0.003924 -0.006315 -0.000574 1673511864.010824
-0.003942 -0.006397 -0.000568 1673511864.015758
-0.004093 -0.005535 -0.000479 1673511864.025124
-0.004096 -0.005540 -0.000478 1673511864.025749
-0.004118 -0.005578 -0.000469 1673511864.030757
-0.004141 -0.005617 -0.000459 1673511864.035781
-0.004164 -0.005656 -0.000450 1673511864.040921
-0.004187 -0.005693 -0.000440 1673511864.045785
-0.004209 -0.005731 -0.000431 1673511864.050818
-0.004232 -0.005769 -0.000422 1673511864.055813
-0.004256 -0.005810 -0.000412 1673511864.061118
-0.004277 -0.005845 -0.000403 1673511864.065806
-0.004300 -0.005883 -0.000394 1673511864.070779
-0.004323 -0.005922 -0.000384 1673511864.075816
-0.004346 -0.005960 -0.000375 1673511864.080820
-0.004368 -0.005998 -0.000365 1673511864.085811
-0.004391 -0.006036 -0.000356 1673511864.090792
-0.004413 -0.006074 -0.000347 1673511864.095790
-0.004436 -0.006112 -0.000337 1673511864.100809
-0.004459 -0.006150 -0.000328 1673511864.105832
-0.004481 -0.006188 -0.000319 1673511864.110780
-0.004504 -0.006226 -0.000309 1673511864.115753
-0.004311 -0.005577 -0.000319 1673511864.127158
-0.004311 -0.005577 -0.000319 1673511864.127276
-0.004319 -0.005581 -0.000313 1673511864.130775
-0.004331 -0.005587 -0.000305 1673511864.135811
-0.004343 -0.005592 -0.000297 1673511864.140770
-0.004355 -0.005598 -0.000289 1673511864.145778
-0.004367 -0.005604 -0.000281 1673511864.150783
-0.004379 -0.005610 -0.000273 1673511864.155811
-0.004392 -0.005616 -0.000264 1673511864.161075
-0.004403 -0.005621 -0.000257 1673511864.165815
-0.004415 -0.005627 -0.000249 1673511864.170807
-0.004427 -0.005632 -0.000241 1673511864.175824
-0.004439 -0.005638 -0.000233 1673511864.180842
-0.004451 -0.005644 -0.000225 1673511864.185795
-0.004462 -0.005650 -0.000217 1673511864.190778
-0.004474 -0.005655 -0.000209 1673511864.195836
-0.004486 -0.005661 -0.000201 1673511864.200817
-0.004498 -0.005667 -0.000193 1673511864.205821
-0.004510 -0.005672 -0.000185 1673511864.210800
-0.004522 -0.005678 -0.000177 1673511864.215816
-0.003484 -0.004547 -0.000478 1673511864.227202
-0.003483 -0.004546 -0.000479 1673511864.227299
-0.003459 -0.004515 -0.000483 1673511864.230775
-0.003423 -0.004469 -0.000489 1673511864.235824
-0.003388 -0.004425 -0.000495 1673511864.240752
-0.003352 -0.004379 -0.000501 1673511864.245817
-0.003317 -0.004335 -0.000508 1673511864.250765
-0.003282 -0.004289 -0.000514 1673511864.255802
-0.003246 -0.004244 -0.000520 1673511864.260796
-0.003211 -0.004199 -0.000526 1673511864.265800
-0.003176 -0.004154 -0.000532 1673511864.270768
-0.003141 -0.004109 -0.000538 1673511864.275752
-0.003105 -0.004064 -0.000545 1673511864.280809
-0.003070 -0.004019 -0.000551 1673511864.285785
-0.003034 -0.003974 -0.000557 1673511864.290800
-0.002999 -0.003929 -0.000563 1673511864.295808
-0.002964 -0.003884 -0.000569 1673511864.300796
-0.002928 -0.003838 -0.000576 1673511864.305884
-0.002893 -0.003794 -0.000582 1673511864.310810
-0.002858 -0.003749 -0.000588 1673511864.315813
-0.002822 -0.003704 -0.000594 1673511864.320822
-0.004577 -0.003227 -0.000955 1673511864.329165
-0.004591 -0.003207 -0.000962 1673511864.330762
-0.004636 -0.003145 -0.000983 1673511864.335763
-0.004681 -0.003081 -0.001005 1673511864.340869
-0.004725 -0.003019 -0.001027 1673511864.345797
-0.004769 -0.002956 -0.001048 1673511864.350778
-0.004814 -0.002893 -0.001070 1673511864.355835
-0.004859 -0.002829 -0.001092 1673511864.360965
-0.004902 -0.002768 -0.001113 1673511864.365813
-0.004947 -0.002705 -0.001135 1673511864.370835
-0.004990 -0.002643 -0.001156 1673511864.375784
-0.005035 -0.002580 -0.001178 1673511864.380841
-0.005079 -0.002517 -0.001199 1673511864.385819
-0.005123 -0.002455 -0.001221 1673511864.390786
-0.005168 -0.002392 -0.001242 1673511864.395808
-0.005212 -0.002330 -0.001264 1673511864.400786
-0.005257 -0.002266 -0.001286 1673511864.405848
-0.005301 -0.002204 -0.001307 1673511864.410801
-0.005345 -0.002142 -0.001329 1673511864.415798
-0.005392 -0.002076 -0.001351 1673511864.421082
-0.004765 -0.003258 -0.001304 1673511864.430562
-0.004766 -0.003258 -0.001305 1673511864.430835
-0.004779 -0.003252 -0.001323 1673511864.435779
-0.004792 -0.003246 -0.001341 1673511864.440787
-0.004806 -0.003241 -0.001358 1673511864.445825
-0.004819 -0.003235 -0.001376 1673511864.450840
-0.004832 -0.003229 -0.001394 1673511864.455841
-0.004846 -0.003223 -0.001412 1673511864.460821
-0.004859 -0.003217 -0.001429 1673511864.465801
-0.004872 -0.003212 -0.001447 1673511864.470826
-0.004885 -0.003206 -0.001465 1673511864.475805
-0.004899 -0.003200 -0.001483 1673511864.480924
-0.004912 -0.003194 -0.001500 1673511864.485769
-0.004925 -0.003189 -0.001518 1673511864.490781
-0.004938 -0.003183 -0.001536 1673511864.495810
-0.004952 -0.003177 -0.001554 1673511864.500882
-0.004965 -0.003171 -0.001571 1673511864.505800
-0.004978 -0.003165 -0.001589 1673511864.510777
-0.004991 -0.003160 -0.001606 1673511864.515799
-0.005005 -0.003154 -0.001625 1673511864.520960
-0.005326 -0.003747 -0.001259 1673511864.527974
-0.005341 -0.003758 -0.001259 1673511864.530771
-0.005368 -0.003780 -0.001259 1673511864.535769
-0.005395 -0.003801 -0.001259 1673511864.540783
-0.005422 -0.003822 -0.001259 1673511864.545789
-0.005449 -0.003844 -0.001259 1673511864.550851
-0.005476 -0.003865 -0.001259 1673511864.555765
-0.005502 -0.003886 -0.001260 1673511864.560745
-0.005530 -0.003908 -0.001260 1673511864.565803
-0.005556 -0.003929 -0.001260 1673511864.570785
-0.005583 -0.003950 -0.001260 1673511864.575772
-0.005611 -0.003972 -0.001260 1673511864.581012
-0.005637 -0.003993 -0.001260 1673511864.585827
-0.005664 -0.004014 -0.001260 1673511864.590833
-0.005691 -0.004035 -0.001260 1673511864.595796
-0.005718 -0.004057 -0.001261 1673511864.600841
-0.005745 -0.004078 -0.001261 1673511864.605795
-0.005772 -0.004099 -0.001261 1673511864.610819
-0.005798 -0.004121 -0.001261 1673511864.615810
-0.005825 -0.004142 -0.001261 1673511864.620804
-0.004840 -0.003618 -0.000964 1673511864.626721
-0.004824 -0.003615 -0.000953 1673511864.630835
-0.004804 -0.003611 -0.000939 1673511864.635861
-0.004785 -0.003607 -0.000926 1673511864.640813
-0.004765 -0.003603 -0.000912 1673511864.645787
-0.004745 -0.003599 -0.000898 1673511864.650815
-0.004725 -0.003595 -0.000885 1673511864.655800
-0.004705 -0.003591 -0.000871 1673511864.660917
-0.004686 -0.003587 -0.000858 1673511864.665796
-0.004666 -0.003583 -0.000844 1673511864.670794
-0.004646 -0.003579 -0.000831 1673511864.675821
-0.004626 -0.003575 -0.000817 1673511864.680842
-0.004606 -0.003571 -0.000804 1673511864.685794
-0.004587 -0.003567 -0.000790 1673511864.690783
-0.004567 -0.003564 -0.000777 1673511864.695776
-0.004547 -0.003560 -0.000763 1673511864.700802
-0.004527 -0.003556 -0.000750 1673511864.705798
-0.004507 -0.003552 -0.000736 1673511864.710815
-0.004488 -0.003548 -0.000722 1673511864.715782
-0.004468 -0.003544 -0.000709 1673511864.720804
-0.004801 -0.003702 -0.000352 1673511864.730413
-0.004801 -0.003702 -0.000350 1673511864.730752
-0.004797 -0.003706 -0.000321 1673511864.735787
-0.004794 -0.003709 -0.000292 1673511864.740855
-0.004791 -0.003713 -0.000264 1673511864.745826
-0.004788 -0.003716 -0.000236 1673511864.750765
-0.004785 -0.003720 -0.000207 1673511864.755833
-0.004781 -0.003723 -0.000179 1673511864.760921
-0.004778 -0.003727 -0.000151 1673511864.765846
-0.004775 -0.003730 -0.000123 1673511864.770810
-0.004772 -0.003734 -0.000094 1673511864.775819
-0.004769 -0.003737 -0.000065 1673511864.780934
-0.004766 -0.003741 -0.000038 1673511864.785784
-0.004762 -0.003744 -0.000009 1673511864.790802
-0.004759 -0.003748 0.000020 1673511864.795852
-0.004756 -0.003751 0.000048 1673511864.800932
-0.004753 -0.003755 0.000076 1673511864.805803
-0.004750 -0.003758 0.000105 1673511864.810845
-0.004747 -0.003762 0.000133 1673511864.815807
-0.004743 -0.003765 0.000161 1673511864.820844
-0.002676 -0.004149 -0.000392 1673511864.832658
-0.002674 -0.004150 -0.000392 1673511864.832761
-0.002617 -0.004162 -0.000391 1673511864.835777
-0.002522 -0.004182 -0.000390 1673511864.840791
-0.002428 -0.004202 -0.000389 1673511864.845780
-0.002333 -0.004222 -0.000388 1673511864.850859
-0.002239 -0.004242 -0.000387 1673511864.855811
-0.002145 -0.004262 -0.000387 1673511864.860790
-0.002050 -0.004283 -0.000386 1673511864.865842
-0.001957 -0.004303 -0.000385 1673511864.870794
-0.001863 -0.004323 -0.000384 1673511864.875774
-0.001769 -0.004343 -0.000383 1673511864.880773
-0.001673 -0.004363 -0.000382 1673511864.885822
-0.001579 -0.004383 -0.000381 1673511864.890809
-0.001485 -0.004403 -0.000380 1673511864.895798
-0.001391 -0.004423 -0.000379 1673511864.900815
-0.001296 -0.004443 -0.000378 1673511864.905831
-0.001202 -0.004464 -0.000377 1673511864.910836
-0.001108 -0.004483 -0.000376 1673511864.915790
-0.001012 -0.004504 -0.000375 1673511864.920872
-0.000919 -0.004524 -0.000374 1673511864.925852
-0.002448 -0.004226 -0.000779 1673511864.932386
-0.002434 -0.004229 -0.000791 1673511864.935781
-0.002414 -0.004235 -0.000808 1673511864.940761
-0.002393 -0.004241 -0.000825 1673511864.945827
-0.002373 -0.004246 -0.000843 1673511864.950839
-0.002353 -0.004252 -0.000859 1673511864.955766
-0.002332 -0.004257 -0.000877 1673511864.960822
-0.002312 -0.004263 -0.000894 1673511864.965782
-0.002291 -0.004269 -0.000911 1673511864.970838
-0.002271 -0.004274 -0.000928 1673511864.975751
-0.002250 -0.004280 -0.000946 1673511864.980810
-0.002230 -0.004285 -0.000963 1673511864.985804
-0.002209 -0.004291 -0.000980 1673511864.990794
-0.002189 -0.004297 -0.000997 1673511864.995795
-0.002168 -0.004302 -0.001014 1673511865.000814
-0.002148 -0.004308 -0.001032 1673511865.005798
-0.002128 -0.004313 -0.001049 1673511865.010781
-0.002107 -0.004319 -0.001066 1673511865.015801
-0.002087 -0.004325 -0.001083 1673511865.020818
-0.002066 -0.004330 -0.001100 1673511865.025831
-0.003890 -0.004709 -0.000759 1673511865.035064
-0.003898 -0.004712 -0.000759 1673511865.035748
-0.003960 -0.004734 -0.000759 1673511865.040795
-0.004021 -0.004755 -0.000760 1673511865.045798
-0.004083 -0.004777 -0.000761 1673511865.050820
-0.004145 -0.004799 -0.000762 1673511865.055859
-0.004206 -0.004821 -0.000762 1673511865.060832
-0.004267 -0.004843 -0.000763 1673511865.065834
-0.004328 -0.004864 -0.000764 1673511865.070796
-0.004389 -0.004886 -0.000765 1673511865.075786
-0.004451 -0.004908 -0.000766 1673511865.080789
-0.004513 -0.004930 -0.000766 1673511865.085814
-0.004574 -0.004951 -0.000767 1673511865.090799
-0.004635 -0.004973 -0.000768 1673511865.095793
-0.004697 -0.004995 -0.000769 1673511865.100826
-0.004758 -0.005017 -0.000769 1673511865.105803
-0.004820 -0.005039 -0.000770 1673511865.110856
-0.004881 -0.005060 -0.000771 1673511865.115807
-0.004944 -0.005083 -0.000772 1673511865.120920
-0.005004 -0.005104 -0.000772 1673511865.125854
-0.004587 -0.003665 -0.000817 1673511865.133710
-0.004602 -0.003647 -0.000818 1673511865.135748
-0.004641 -0.003603 -0.000821 1673511865.140793
-0.004680 -0.003558 -0.000824 1673511865.145832
-0.004719 -0.003513 -0.000826 1673511865.150900
-0.004756 -0.003470 -0.000829 1673511865.155819
-0.004795 -0.003425 -0.000832 1673511865.160812
-0.004833 -0.003381 -0.000834 1673511865.165797
-0.004872 -0.003336 -0.000837 1673511865.170868
-0.004910 -0.003293 -0.000840 1673511865.175808
-0.004948 -0.003248 -0.000843 1673511865.180792
-0.004986 -0.003204 -0.000845 1673511865.185814
-0.005025 -0.003160 -0.000848 1673511865.190817
-0.005063 -0.003116 -0.000851 1673511865.195803
-0.005101 -0.003071 -0.000853 1673511865.200820
-0.005140 -0.003026 -0.000856 1673511865.205875
-0.005178 -0.002983 -0.000859 1673511865.210819
-0.005216 -0.002939 -0.000861 1673511865.215795
-0.005256 -0.002893 -0.000864 1673511865.220967
-0.005293 -0.002850 -0.000867 1673511865.225792
-0.005808 -0.004047 -0.000884 1673511865.236462
-0.005809 -0.004048 -0.000884 1673511865.236573
-0.005857 -0.004058 -0.000887 1673511865.240782
-0.005915 -0.004071 -0.000890 1673511865.245793
-0.005972 -0.004084 -0.000894 1673511865.250794
-0.006030 -0.004097 -0.000897 1673511865.255812
-0.006087 -0.004109 -0.000900 1673511865.260758
-0.006145 -0.004122 -0.000903 1673511865.265829
-0.006202 -0.004135 -0.000907 1673511865.270815
-0.006260 -0.004147 -0.000910 1673511865.275872
-0.006319 -0.004160 -0.000913 1673511865.280977
-0.006374 -0.004173 -0.000916 1673511865.285787
-0.006431 -0.004185 -0.000919 1673511865.290794
-0.006489 -0.004198 -0.000923 1673511865.295788
-0.006546 -0.004211 -0.000926 1673511865.300814
-0.006604 -0.004223 -0.000929 1673511865.305843
-0.006661 -0.004236 -0.000932 1673511865.310800
-0.006719 -0.004249 -0.000936 1673511865.315795
-0.006778 -0.004262 -0.000939 1673511865.320994
-0.006833 -0.004274 -0.000942 1673511865.325769
-0.005471 -0.005026 -0.000722 1673511865.334604
-0.005469 -0.005036 -0.000720 1673511865.335782
-0.005460 -0.005082 -0.000714 1673511865.340775
-0.005451 -0.005128 -0.000707 1673511865.345786
-0.005443 -0.005173 -0.000700 1673511865.350805
-0.005434 -0.005219 -0.000693 1673511865.355829
-0.005425 -0.005265 -0.000686 1673511865.360799
-0.005417 -0.005310 -0.000679 1673511865.365812
-0.005408 -0.005356 -0.000672 1673511865.370775
-0.005399 -0.005402 -0.000665 1673511865.375807
-0.005390 -0.005449 -0.000657 1673511865.381052
-0.005382 -0.005493 -0.000651 1673511865.385818
-0.005373 -0.005538 -0.000644 1673511865.390802
-0.005365 -0.005583 -0.000637 1673511865.395748
-0.005356 -0.005630 -0.000630 1673511865.400815
-0.005347 -0.005676 -0.000623 1673511865.405858
-0.005338 -0.005721 -0.000616 1673511865.410815
-0.005330 -0.005766 -0.000609 1673511865.415768
-0.005321 -0.005812 -0.000602 1673511865.420811
-0.005312 -0.005858 -0.000595 1673511865.425818
-0.003572 -0.005954 -0.000491 1673511865.436630
-0.003571 -0.005955 -0.000491 1673511865.436696
-0.003498 -0.005993 -0.000482 1673511865.440928
-0.003415 -0.006038 -0.000471 1673511865.445785
-0.003329 -0.006083 -0.000460 1673511865.450815
-0.003243 -0.006129 -0.000449 1673511865.455821
-0.003155 -0.006176 -0.000438 1673511865.460951
-0.003072 -0.006220 -0.000428 1673511865.465835
-0.002986 -0.006266 -0.000417 1673511865.470855
-0.002901 -0.006311 -0.000406 1673511865.475811
-0.002816 -0.006356 -0.000395 1673511865.480789
-0.002730 -0.006402 -0.000384 1673511865.485773
-0.002644 -0.006448 -0.000373 1673511865.490814
-0.002558 -0.006493 -0.000362 1673511865.495832
-0.002473 -0.006538 -0.000351 1673511865.500799
-0.002387 -0.006584 -0.000340 1673511865.505799
-0.002302 -0.006629 -0.000329 1673511865.510795
-0.002216 -0.006675 -0.000318 1673511865.515793
-0.002130 -0.006721 -0.000308 1673511865.520827
-0.002043 -0.006767 -0.000296 1673511865.525915
-0.003829 -0.005142 -0.000716 1673511865.538137
-0.003829 -0.005142 -0.000716 1673511865.538246
-0.003831 -0.005126 -0.000721 1673511865.540775
-0.003834 -0.005093 -0.000730 1673511865.545886
-0.003837 -0.005063 -0.000738 1673511865.550749
-0.003840 -0.005030 -0.000747 1673511865.555887
-0.003843 -0.004998 -0.000756 1673511865.561000
-0.003846 -0.004967 -0.000765 1673511865.565795
-0.003849 -0.004936 -0.000774 1673511865.570832
-0.003852 -0.004904 -0.000783 1673511865.575813
-0.003855 -0.004873 -0.000792 1673511865.580807
-0.003858 -0.004841 -0.000801 1673511865.585798
-0.003861 -0.004809 -0.000810 1673511865.590816
-0.003864 -0.004778 -0.000818 1673511865.595803
-0.003867 -0.004746 -0.000827 1673511865.600834
-0.003870 -0.004715 -0.000836 1673511865.605829
-0.003873 -0.004683 -0.000845 1673511865.610765
-0.003876 -0.004651 -0.000854 1673511865.615825
-0.003879 -0.004620 -0.000863 1673511865.620790
-0.003882 -0.004588 -0.000872 1673511865.625811
-0.003885 -0.004557 -0.000881 1673511865.630799
-0.003933 -0.004103 -0.000803 1673511865.639484
-0.003934 -0.004091 -0.000805 1673511865.640774
-0.003939 -0.004041 -0.000809 1673511865.645793
-0.003944 -0.003992 -0.000814 1673511865.650768
-0.003949 -0.003942 -0.000819 1673511865.655862
-0.003954 -0.003892 -0.000824 1673511865.660996
-0.003959 -0.003844 -0.000829 1673511865.665793
-0.003964 -0.003795 -0.000833 1673511865.670791
-0.003969 -0.003746 -0.000838 1673511865.675778
-0.003974 -0.003695 -0.000843 1673511865.680977
-0.003978 -0.003647 -0.000848 1673511865.685817
-0.003983 -0.003598 -0.000853 1673511865.690825
-0.003988 -0.003549 -0.000857 1673511865.695788
-0.003993 -0.003499 -0.000862 1673511865.700848
-0.003998 -0.003450 -0.000867 1673511865.705857
-0.004003 -0.003401 -0.000872 1673511865.710798
-0.004008 -0.003352 -0.000877 1673511865.715805
-0.004013 -0.003303 -0.000881 1673511865.720793
-0.004018 -0.003254 -0.000886 1673511865.725783
-0.004023 -0.003204 -0.000891 1673511865.730804
-0.003807 -0.004826 -0.000793 1673511865.739513
-0.003806 -0.004833 -0.000793 1673511865.740814
-0.003801 -0.004859 -0.000793 1673511865.745769
-0.003796 -0.004886 -0.000793 1673511865.750783
-0.003791 -0.004913 -0.000793 1673511865.755791
-0.003786 -0.004940 -0.000793 1673511865.760836
-0.003781 -0.004967 -0.000793 1673511865.765785
-0.003776 -0.004994 -0.000793 1673511865.770797
-0.003771 -0.005020 -0.000793 1673511865.775770
-0.003766 -0.005047 -0.000793 1673511865.780770
-0.003761 -0.005075 -0.000793 1673511865.785875
-0.003756 -0.005102 -0.000793 1673511865.790891
-0.003751 -0.005128 -0.000793 1673511865.795805
-0.003746 -0.005155 -0.000793 1673511865.800796
-0.003740 -0.005182 -0.000793 1673511865.805819
-0.003735 -0.005209 -0.000793 1673511865.810863
-0.003730 -0.005235 -0.000793 1673511865.815809
-0.003725 -0.005262 -0.000793 1673511865.820828
-0.003720 -0.005289 -0.000794 1673511865.825851
-0.003715 -0.005316 -0.000794 1673511865.830818
-0.002664 -0.005230 -0.000583 1673511865.839025
-0.002646 -0.005237 -0.000580 1673511865.840761
-0.002594 -0.005258 -0.000570 1673511865.845756
-0.002541 -0.005279 -0.000561 1673511865.850790
-0.002489 -0.005300 -0.000551 1673511865.855799
-0.002437 -0.005321 -0.000542 1673511865.860806
-0.002385 -0.005342 -0.000532 1673511865.865811
-0.002333 -0.005363 -0.000523 1673511865.870794
-0.002281 -0.005384 -0.000514 1673511865.875809
-0.002228 -0.005405 -0.000504 1673511865.880856
-0.002176 -0.005426 -0.000495 1673511865.885879
-0.002124 -0.005447 -0.000485 1673511865.890796
-0.002072 -0.005468 -0.000476 1673511865.895797
-0.002020 -0.005489 -0.000466 1673511865.900787
-0.001968 -0.005510 -0.000457 1673511865.905764
-0.001916 -0.005530 -0.000448 1673511865.910768
-0.001864 -0.005552 -0.000438 1673511865.915787
-0.001811 -0.005573 -0.000429 1673511865.920834
-0.001759 -0.005594 -0.000419 1673511865.925890
-0.001690 -0.005622 -0.000406 1673511865.932520
-0.002345 -0.005107 -0.000565 1673511865.938172
-0.002335 -0.005105 -0.000564 1673511865.940766
-0.002316 -0.005101 -0.000563 1673511865.945775
-0.002297 -0.005098 -0.000561 1673511865.950796
-0.002277 -0.005094 -0.000559 1673511865.955818
-0.002258 -0.005090 -0.000558 1673511865.960773
-0.002239 -0.005087 -0.000556 1673511865.965762
-0.002219 -0.005083 -0.000554 1673511865.970760
-0.002200 -0.005079 -0.000553 1673511865.975768
-0.002180 -0.005076 -0.000551 1673511865.980792
-0.002161 -0.005072 -0.000549 1673511865.985805
-0.002142 -0.005068 -0.000548 1673511865.990778
-0.002123 -0.005065 -0.000546 1673511865.995769
-0.002103 -0.005061 -0.000544 1673511866.000878
-0.002084 -0.005057 -0.000542 1673511866.005816
-0.002064 -0.005053 -0.000541 1673511866.010765
-0.002045 -0.005050 -0.000539 1673511866.015786
-0.002023 -0.005046 -0.000537 1673511866.021390
-0.002006 -0.005042 -0.000536 1673511866.025753
-0.001987 -0.005039 -0.000534 1673511866.030787
-0.003076 -0.004156 -0.000643 1673511866.043531
-0.003077 -0.004155 -0.000643 1673511866.043688
-0.003090 -0.004137 -0.000645 1673511866.045760
-0.003121 -0.004095 -0.000648 1673511866.050786
-0.003152 -0.004053 -0.000652 1673511866.055828
-0.003183 -0.004011 -0.000655 1673511866.060804
-0.003214 -0.003968 -0.000658 1673511866.065879
-0.003244 -0.003926 -0.000661 1673511866.070798
-0.003275 -0.003884 -0.000665 1673511866.075794
-0.003306 -0.003842 -0.000668 1673511866.080817
-0.003336 -0.003800 -0.000671 1673511866.085813
-0.003367 -0.003758 -0.000675 1673511866.090831
-0.003398 -0.003716 -0.000678 1673511866.095828
-0.003428 -0.003674 -0.000681 1673511866.100787
-0.003459 -0.003632 -0.000685 1673511866.105785
-0.003490 -0.003589 -0.000688 1673511866.110817
-0.003521 -0.003547 -0.000691 1673511866.115805
-0.003551 -0.003505 -0.000695 1673511866.120821
-0.003582 -0.003464 -0.000698 1673511866.125769
-0.003613 -0.003421 -0.000701 1673511866.130776
-0.003644 -0.003379 -0.000705 1673511866.135825
-0.002813 -0.004090 -0.000755 1673511866.144833
-0.002811 -0.004088 -0.000755 1673511866.145751
-0.002803 -0.004081 -0.000761 1673511866.150780
-0.002795 -0.004073 -0.000766 1673511866.155808
-0.002787 -0.004065 -0.000771 1673511866.160789
-0.002779 -0.004058 -0.000776 1673511866.165783
-0.002771 -0.004050 -0.000782 1673511866.170786
-0.002763 -0.004042 -0.000787 1673511866.175801
-0.002754 -0.004035 -0.000792 1673511866.180870
-0.002746 -0.004027 -0.000798 1673511866.185835
-0.002738 -0.004020 -0.000803 1673511866.190777
-0.002730 -0.004012 -0.000808 1673511866.195785
-0.002722 -0.004004 -0.000813 1673511866.200880
-0.002714 -0.003997 -0.000818 1673511866.205823
-0.002706 -0.003989 -0.000824 1673511866.210837
-0.002698 -0.003981 -0.000829 1673511866.215821
-0.002690 -0.003974 -0.000834 1673511866.220791
-0.002682 -0.003966 -0.000839 1673511866.225822
-0.002674 -0.003958 -0.000845 1673511866.230802
-0.002664 -0.003949 -0.000851 1673511866.236972
-0.004899 -0.002850 -0.001271 1673511866.246061
-0.004901 -0.002849 -0.001272 1673511866.246165
-0.004984 -0.002798 -0.001293 1673511866.250797
-0.005074 -0.002743 -0.001316 1673511866.255793
-0.005166 -0.002687 -0.001340 1673511866.260879
-0.005256 -0.002632 -0.001363 1673511866.265866
-0.005346 -0.002577 -0.001386 1673511866.270864
-0.005435 -0.002523 -0.001409 1673511866.275821
-0.005533 -0.002463 -0.001434 1673511866.281228
-0.005615 -0.002413 -0.001455 1673511866.285814
-0.005704 -0.002358 -0.001478 1673511866.290739
-0.005795 -0.002303 -0.001501 1673511866.295787
-0.005888 -0.002246 -0.001525 1673511866.300934
-0.005976 -0.002193 -0.001548 1673511866.305795
-0.006066 -0.002137 -0.001571 1673511866.310811
-0.006156 -0.002083 -0.001594 1673511866.315781
-0.006249 -0.002026 -0.001618 1673511866.320935
-0.006336 -0.001973 -0.001641 1673511866.325790
-0.006427 -0.001917 -0.001664 1673511866.330804
-0.006521 -0.001860 -0.001688 1673511866.336030
-0.007157 -0.002070 -0.001412 1673511866.344935
-0.007175 -0.002063 -0.001413 1673511866.345748
-0.007287 -0.002021 -0.001422 1673511866.350772
-0.007399 -0.001980 -0.001432 1673511866.355820
-0.007512 -0.001938 -0.001441 1673511866.360875
-0.007622 -0.001897 -0.001450 1673511866.365797
-0.007732 -0.001856 -0.001459 1673511866.370778
-0.007844 -0.001815 -0.001468 1673511866.375772
-0.007957 -0.001772 -0.001477 1673511866.380875
-0.008066 -0.001732 -0.001486 1673511866.385758
-0.008178 -0.001690 -0.001495 1673511866.390785
-0.008288 -0.001649 -0.001504 1673511866.395752
-0.008400 -0.001608 -0.001513 1673511866.400771
-0.008511 -0.001567 -0.001522 1673511866.405771
-0.008623 -0.001525 -0.001531 1673511866.410770
-0.008734 -0.001484 -0.001540 1673511866.415763
-0.008846 -0.001442 -0.001549 1673511866.420797
-0.008957 -0.001401 -0.001558 1673511866.425805
-0.009068 -0.001360 -0.001567 1673511866.430775
-0.009181 -0.001318 -0.001577 1673511866.435869
-0.007341 -0.002070 -0.001095 1673511866.444941
-0.007344 -0.002069 -0.001093 1673511866.445746
-0.007364 -0.002065 -0.001079 1673511866.450816
-0.007384 -0.002061 -0.001066 1673511866.455779
-0.007404 -0.002056 -0.001053 1673511866.460843
-0.007424 -0.002052 -0.001039 1673511866.465923
-0.007443 -0.002048 -0.001026 1673511866.470805
-0.007463 -0.002044 -0.001013 1673511866.475760
-0.007483 -0.002039 -0.001000 1673511866.480834
-0.007503 -0.002035 -0.000986 1673511866.485854
-0.007522 -0.002031 -0.000973 1673511866.490801
-0.007542 -0.002026 -0.000960 1673511866.495777
-0.007563 -0.002022 -0.000946 1673511866.500939
-0.007582 -0.002018 -0.000933 1673511866.505794
-0.007602 -0.002013 -0.000920 1673511866.510784
-0.007621 -0.002009 -0.000907 1673511866.515765
-0.007642 -0.002005 -0.000893 1673511866.520931
-0.007661 -0.002001 -0.000880 1673511866.525805
-0.007681 -0.001996 -0.000867 1673511866.530808
-0.007701 -0.001992 -0.000854 1673511866.535823
-0.007208 -0.004079 -0.000837 1673511866.543160
-0.007206 -0.004126 -0.000831 1673511866.545763
-0.007202 -0.004220 -0.000817 1673511866.550836
-0.007198 -0.004311 -0.000804 1673511866.555799
-0.007193 -0.004407 -0.000791 1673511866.561032
-0.007189 -0.004494 -0.000778 1673511866.565815
-0.007185 -0.004586 -0.000765 1673511866.570798
-0.007181 -0.004678 -0.000752 1673511866.575823
-0.007177 -0.004770 -0.000739 1673511866.580846
-0.007173 -0.004861 -0.000726 1673511866.585791
-0.007169 -0.004953 -0.000712 1673511866.590825
-0.007165 -0.005044 -0.000699 1673511866.595783
-0.007161 -0.005138 -0.000686 1673511866.600877
-0.007157 -0.005228 -0.000673 1673511866.605787
-0.007152 -0.005319 -0.000660 1673511866.610775
-0.007148 -0.005412 -0.000647 1673511866.615814
-0.007144 -0.005503 -0.000634 1673511866.620792
-0.007140 -0.005595 -0.000621 1673511866.625793
-0.007136 -0.005687 -0.000608 1673511866.630806
-0.007132 -0.005779 -0.000594 1673511866.635839
-0.004755 -0.005349 -0.000710 1673511866.646744
-0.004754 -0.005350 -0.000710 1673511866.646808
-0.004667 -0.005400 -0.000705 1673511866.650757
-0.004555 -0.005464 -0.000698 1673511866.655812
-0.004445 -0.005527 -0.000691 1673511866.660806
-0.004335 -0.005591 -0.000685 1673511866.665812
-0.004225 -0.005655 -0.000678 1673511866.670823
-0.004116 -0.005717 -0.000672 1673511866.675770
-0.004005 -0.005781 -0.000665 1673511866.680809
-0.003895 -0.005845 -0.000658 1673511866.685808
-0.003785 -0.005908 -0.000652 1673511866.690791
-0.003675 -0.005972 -0.000645 1673511866.695782
-0.003564 -0.006036 -0.000638 1673511866.700825
-0.003455 -0.006099 -0.000632 1673511866.705788
-0.003345 -0.006162 -0.000625 1673511866.710787
-0.003234 -0.006226 -0.000618 1673511866.715815
-0.003125 -0.006289 -0.000612 1673511866.720761
-0.003015 -0.006353 -0.000605 1673511866.725772
-0.002904 -0.006416 -0.000598 1673511866.730787
-0.002795 -0.006480 -0.000592 1673511866.735770
-0.003283 -0.005683 -0.000488 1673511866.747418
-0.003282 -0.005684 -0.000488 1673511866.747473
-0.003231 -0.005698 -0.000481 1673511866.750772
-0.003154 -0.005719 -0.000471 1673511866.755815
-0.003074 -0.005741 -0.000460 1673511866.760997
-0.003001 -0.005761 -0.000450 1673511866.765793
-0.002925 -0.005782 -0.000439 1673511866.770758
-0.002848 -0.005803 -0.000428 1673511866.775783
-0.002766 -0.005826 -0.000417 1673511866.781124
-0.002694 -0.005846 -0.000407 1673511866.785774
-0.002617 -0.005867 -0.000397 1673511866.790781
-0.002541 -0.005888 -0.000386 1673511866.795773
-0.002462 -0.005910 -0.000375 1673511866.800882
-0.002387 -0.005931 -0.000365 1673511866.805831
-0.002309 -0.005952 -0.000354 1673511866.810901
-0.002234 -0.005973 -0.000344 1673511866.815799
-0.002153 -0.005995 -0.000333 1673511866.821043
-0.002081 -0.006015 -0.000322 1673511866.825777
-0.002004 -0.006036 -0.000312 1673511866.830773
-0.001927 -0.006057 -0.000301 1673511866.835759
-0.001847 -0.006079 -0.000290 1673511866.841024
-0.002178 -0.005789 -0.000442 1673511866.850132
-0.002171 -0.005790 -0.000441 1673511866.850747
-0.002115 -0.005796 -0.000438 1673511866.855760
-0.002059 -0.005803 -0.000435 1673511866.860759
-0.002003 -0.005810 -0.000432 1673511866.865763
-0.001947 -0.005816 -0.000429 1673511866.870801
-0.001891 -0.005823 -0.000426 1673511866.875786
-0.001835 -0.005830 -0.000423 1673511866.880808
-0.001779 -0.005836 -0.000420 1673511866.885792
-0.001723 -0.005843 -0.000417 1673511866.890807
-0.001668 -0.005849 -0.000414 1673511866.895784
-0.001611 -0.005856 -0.000411 1673511866.900826
-0.001555 -0.005863 -0.000408 1673511866.905856
-0.001500 -0.005869 -0.000405 1673511866.910793
-0.001444 -0.005876 -0.000402 1673511866.915804
-0.001387 -0.005883 -0.000399 1673511866.920886
-0.001332 -0.005889 -0.000396 1673511866.925761
-0.001276 -0.005896 -0.000393 1673511866.930811
-0.001220 -0.005903 -0.000390 1673511866.935806
-0.001163 -0.005909 -0.000386 1673511866.940872
-0.001063 -0.004158 -0.000448 1673511866.952587
-0.001062 -0.004156 -0.000448 1673511866.952718
-0.001028 -0.004113 -0.000448 1673511866.955768
-0.000974 -0.004043 -0.000448 1673511866.960760
-0.000919 -0.003972 -0.000448 1673511866.965828
-0.000864 -0.003902 -0.000448 1673511866.970807
-0.000810 -0.003832 -0.000447 1673511866.975798
-0.000755 -0.003762 -0.000447 1673511866.980806
-0.000700 -0.003692 -0.000447 1673511866.985804
-0.000646 -0.003622 -0.000447 1673511866.990766
-0.000592 -0.003552 -0.000447 1673511866.995753
-0.000537 -0.003482 -0.000447 1673511867.000750
-0.000483 -0.003411 -0.000447 1673511867.005757
-0.000428 -0.003341 -0.000447 1673511867.010764
-0.000373 -0.003271 -0.000447 1673511867.015784
-0.000318 -0.003200 -0.000447 1673511867.020835
-0.000264 -0.003131 -0.000447 1673511867.025744
-0.000210 -0.003060 -0.000447 1673511867.030773
-0.000155 -0.002990 -0.000447 1673511867.035749
-0.000097 -0.002916 -0.000447 1673511867.041066
-0.001955 -0.004256 -0.000467 1673511867.051524
-0.001956 -0.004256 -0.000467 1673511867.051606
-0.001983 -0.004253 -0.000468 1673511867.055768
-0.002016 -0.004248 -0.000468 1673511867.060804
-0.002048 -0.004244 -0.000469 1673511867.065757
-0.002081 -0.004239 -0.000470 1673511867.070751
-0.002114 -0.004235 -0.000471 1673511867.075826
-0.002146 -0.004231 -0.000472 1673511867.080757
-0.002179 -0.004226 -0.000473 1673511867.085767
-0.002212 -0.004222 -0.000473 1673511867.090764
-0.002244 -0.004217 -0.000474 1673511867.095743
-0.002277 -0.004213 -0.000475 1673511867.100750
-0.002310 -0.004208 -0.000476 1673511867.105793
-0.002342 -0.004204 -0.000477 1673511867.110800
-0.002375 -0.004199 -0.000478 1673511867.115772
-0.002407 -0.004195 -0.000478 1673511867.120752
-0.002440 -0.004191 -0.000479 1673511867.125751
-0.002473 -0.004186 -0.000480 1673511867.130753
-0.002505 -0.004182 -0.000481 1673511867.135748
-0.002539 -0.004177 -0.000482 1673511867.140862
-0.003222 -0.005072 -0.000862 1673511867.149509
-0.003238 -0.005081 -0.000866 1673511867.150759
-0.003299 -0.005118 -0.000884 1673511867.155776
-0.003360 -0.005155 -0.000902 1673511867.160799
-0.003421 -0.005191 -0.000920 1673511867.165757
-0.003483 -0.005228 -0.000938 1673511867.170810
-0.003544 -0.005264 -0.000956 1673511867.175776
-0.003604 -0.005300 -0.000974 1673511867.180741
-0.003665 -0.005337 -0.000992 1673511867.185740
-0.003726 -0.005373 -0.001010 1673511867.190738
-0.003788 -0.005410 -0.001028 1673511867.195774
-0.003849 -0.005447 -0.001046 1673511867.200768
-0.003910 -0.005483 -0.001064 1673511867.205765
-0.003971 -0.005520 -0.001082 1673511867.210773
-0.004032 -0.005556 -0.001100 1673511867.215766
-0.004094 -0.005593 -0.001118 1673511867.220783
-0.004154 -0.005629 -0.001136 1673511867.225741
-0.004216 -0.005666 -0.001154 1673511867.230761
-0.004277 -0.005702 -0.001172 1673511867.235774
-0.004338 -0.005739 -0.001190 1673511867.240764
-0.004827 -0.004981 -0.000759 1673511867.248250
-0.004867 -0.004981 -0.000758 1673511867.250765
-0.004946 -0.004980 -0.000754 1673511867.255746
-0.005025 -0.004978 -0.000751 1673511867.260752
-0.005105 -0.004977 -0.000748 1673511867.265753
-0.005188 -0.004976 -0.000745 1673511867.270974
-0.005264 -0.004975 -0.000742 1673511867.275766
-0.005344 -0.004974 -0.000739 1673511867.280804
-0.005422 -0.004973 -0.000735 1673511867.285707
-0.005503 -0.004972 -0.000732 1673511867.290776
-0.005582 -0.004971 -0.000729 1673511867.295754
-0.005664 -0.004970 -0.000726 1673511867.300907
-0.005741 -0.004969 -0.000723 1673511867.305776
-0.005821 -0.004968 -0.000719 1673511867.310783
-0.005900 -0.004967 -0.000716 1673511867.315777
-0.005980 -0.004966 -0.000713 1673511867.320790
-0.006059 -0.004965 -0.000710 1673511867.325761
-0.006138 -0.004964 -0.000707 1673511867.330746
-0.006218 -0.004963 -0.000704 1673511867.335753
-0.006298 -0.004962 -0.000700 1673511867.340802
-0.005405 -0.004665 -0.000423 1673511867.349292
-0.005414 -0.004661 -0.000419 1673511867.350746
-0.005446 -0.004646 -0.000403 1673511867.355763
-0.005478 -0.004632 -0.000387 1673511867.360766
-0.005510 -0.004617 -0.000371 1673511867.365809
-0.005542 -0.004602 -0.000355 1673511867.370776
-0.005574 -0.004588 -0.000340 1673511867.375795
-0.005606 -0.004573 -0.000324 1673511867.380812
-0.005638 -0.004558 -0.000308 1673511867.385786
-0.005670 -0.004544 -0.000293 1673511867.390766
-0.005702 -0.004529 -0.000277 1673511867.395774
-0.005736 -0.004513 -0.000260 1673511867.401181
-0.005766 -0.004500 -0.000245 1673511867.405775
-0.005798 -0.004485 -0.000230 1673511867.410778
-0.005830 -0.004471 -0.000214 1673511867.415777
-0.005862 -0.004456 -0.000198 1673511867.420793
-0.005894 -0.004441 -0.000182 1673511867.425786
-0.005926 -0.004426 -0.000167 1673511867.430800
-0.005958 -0.004412 -0.000151 1673511867.435805
-0.005990 -0.004397 -0.000135 1673511867.440819
-0.006022 -0.004383 -0.000119 1673511867.445803
-0.003553 -0.004022 -0.000506 1673511867.455044
-0.003542 -0.004018 -0.000507 1673511867.455745
-0.003459 -0.003987 -0.000509 1673511867.460931
-0.003382 -0.003959 -0.000512 1673511867.465791
-0.003302 -0.003929 -0.000515 1673511867.470797
-0.003223 -0.003900 -0.000517 1673511867.475761
-0.003142 -0.003870 -0.000520 1673511867.480863
-0.003064 -0.003841 -0.000523 1673511867.485764
-0.002984 -0.003812 -0.000525 1673511867.490780
-0.002904 -0.003782 -0.000528 1673511867.495789
-0.002824 -0.003753 -0.000531 1673511867.500795
-0.002743 -0.003723 -0.000533 1673511867.505859
-0.002664 -0.003694 -0.000536 1673511867.510807
-0.002585 -0.003665 -0.000538 1673511867.515776
-0.002505 -0.003635 -0.000541 1673511867.520781
-0.002425 -0.003606 -0.000544 1673511867.525805
-0.002346 -0.003577 -0.000546 1673511867.530770
-0.002267 -0.003547 -0.000549 1673511867.535762
-0.002186 -0.003518 -0.000552 1673511867.540790
-0.002107 -0.003488 -0.000554 1673511867.545778
-0.002399 -0.004511 -0.000562 1673511867.558044
-0.002398 -0.004512 -0.000562 1673511867.558152
-0.002367 -0.004521 -0.000563 1673511867.560766
-0.002309 -0.004539 -0.000566 1673511867.565749
-0.002250 -0.004558 -0.000569 1673511867.570823
-0.002192 -0.004576 -0.000571 1673511867.575772
-0.002133 -0.004594 -0.000574 1673511867.580807
-0.002074 -0.004612 -0.000577 1673511867.585860
-0.002015 -0.004630 -0.000580 1673511867.590833
-0.001957 -0.004648 -0.000582 1673511867.595800
-0.001899 -0.004666 -0.000585 1673511867.600796
-0.001840 -0.004684 -0.000588 1673511867.605809
-0.001782 -0.004702 -0.000590 1673511867.610783
-0.001723 -0.004721 -0.000593 1673511867.615821
-0.001664 -0.004739 -0.000596 1673511867.620852
-0.001606 -0.004757 -0.000598 1673511867.625817
-0.001547 -0.004775 -0.000601 1673511867.630845
-0.001489 -0.004793 -0.000604 1673511867.635790
-0.001430 -0.004811 -0.000607 1673511867.640868
-0.001372 -0.004829 -0.000609 1673511867.645802
-0.001811 -0.004665 -0.000283 1673511867.656955
-0.001810 -0.004665 -0.000283 1673511867.657092
-0.001785 -0.004672 -0.000274 1673511867.660833
-0.001752 -0.004681 -0.000262 1673511867.665825
-0.001719 -0.004690 -0.000250 1673511867.670805
-0.001685 -0.004699 -0.000238 1673511867.675796
-0.001652 -0.004708 -0.000226 1673511867.680833
-0.001618 -0.004717 -0.000214 1673511867.685822
-0.001585 -0.004726 -0.000202 1673511867.690803
-0.001552 -0.004735 -0.000190 1673511867.695801
-0.001518 -0.004744 -0.000178 1673511867.700788
-0.001485 -0.004753 -0.000166 1673511867.705815
-0.001451 -0.004762 -0.000154 1673511867.710855
-0.001418 -0.004771 -0.000142 1673511867.715801
-0.001384 -0.004780 -0.000130 1673511867.720874
-0.001351 -0.004789 -0.000118 1673511867.725778
-0.001318 -0.004798 -0.000106 1673511867.730781
-0.001284 -0.004807 -0.000094 1673511867.735787
-0.001251 -0.004817 -0.000082 1673511867.740858
-0.001217 -0.004826 -0.000070 1673511867.745860
-0.001760 -0.004335 -0.000133 1673511867.757841
-0.001760 -0.004335 -0.000133 1673511867.757895
-0.001756 -0.004327 -0.000128 1673511867.760777
-0.001750 -0.004313 -0.000120 1673511867.765803
-0.001744 -0.004300 -0.000112 1673511867.770854
-0.001738 -0.004286 -0.000105 1673511867.775785
-0.001732 -0.004272 -0.000096 1673511867.781008
-0.001726 -0.004259 -0.000089 1673511867.785787
-0.001720 -0.004245 -0.000081 1673511867.790804
-0.001714 -0.004232 -0.000073 1673511867.795820
-0.001709 -0.004218 -0.000065 1673511867.800815
-0.001703 -0.004205 -0.000057 1673511867.805781
-0.001697 -0.004191 -0.000049 1673511867.810797
-0.001691 -0.004178 -0.000041 1673511867.815794
-0.001685 -0.004164 -0.000033 1673511867.820862
-0.001679 -0.004151 -0.000025 1673511867.825785
-0.001673 -0.004137 -0.000017 1673511867.830792
-0.001667 -0.004123 -0.000009 1673511867.835876
-0.001661 -0.004110 -0.000001 1673511867.840793
-0.001655 -0.004096 0.000006 1673511867.845795
-0.001649 -0.004083 0.000014 1673511867.850797
-0.001355 -0.006636 -0.000249 1673511867.857054
-0.001341 -0.006713 -0.000253 1673511867.860816
-0.001322 -0.006814 -0.000257 1673511867.865819
-0.001303 -0.006915 -0.000261 1673511867.870780
-0.001284 -0.007017 -0.000266 1673511867.875797
-0.001265 -0.007119 -0.000270 1673511867.880827
-0.001247 -0.007220 -0.000274 1673511867.885796
-0.001228 -0.007321 -0.000278 1673511867.890793
-0.001209 -0.007423 -0.000283 1673511867.895796
-0.001190 -0.007524 -0.000287 1673511867.900787
-0.001171 -0.007626 -0.000291 1673511867.905805
-0.001153 -0.007726 -0.000296 1673511867.910768
-0.001134 -0.007828 -0.000300 1673511867.915794
-0.001115 -0.007930 -0.000304 1673511867.920809
-0.001096 -0.008031 -0.000309 1673511867.925786
-0.001078 -0.008133 -0.000313 1673511867.930810
-0.001059 -0.008235 -0.000317 1673511867.935815
-0.001040 -0.008335 -0.000322 1673511867.940764
-0.001021 -0.008437 -0.000326 1673511867.945758
-0.000169 -0.007586 -0.000306 1673511867.956392
-0.000169 -0.007587 -0.000306 1673511867.956443
-0.000120 -0.007634 -0.000308 1673511867.960849
-0.000065 -0.007686 -0.000311 1673511867.965786
-0.000009 -0.007739 -0.000314 1673511867.970799
0.000046 -0.007792 -0.000317 1673511867.975786
0.000102 -0.007845 -0.000320 1673511867.980791
0.000158 -0.007899 -0.000323 1673511867.985826
0.000213 -0.007952 -0.000326 1673511867.990789
0.000269 -0.008005 -0.000329 1673511867.995802
0.000325 -0.008058 -0.000332 1673511868.000817
0.000380 -0.008111 -0.000335 1673511868.005775
0.000436 -0.008164 -0.000338 1673511868.010775
0.000491 -0.008217 -0.000341 1673511868.015778
0.000547 -0.008270 -0.000344 1673511868.020788
0.000602 -0.008323 -0.000347 1673511868.025765
0.000658 -0.008376 -0.000350 1673511868.030777
0.000714 -0.008430 -0.000353 1673511868.035817
0.000772 -0.008485 -0.000356 1673511868.040968
0.000826 -0.008537 -0.000359 1673511868.045854
0.000881 -0.008589 -0.000362 1673511868.050797
-0.001218 -0.007606 -0.000187 1673511868.059797
-0.001227 -0.007607 -0.000187 1673511868.060769
-0.001269 -0.007613 -0.000181 1673511868.065820
-0.001310 -0.007618 -0.000177 1673511868.070765
-0.001353 -0.007623 -0.000172 1673511868.075785
-0.001394 -0.007628 -0.000167 1673511868.080756
-0.001437 -0.007634 -0.000162 1673511868.085788
-0.001478 -0.007639 -0.000157 1673511868.090776
-0.001520 -0.007644 -0.000152 1673511868.095777
-0.001563 -0.007649 -0.000146 1673511868.100849
-0.001604 -0.007655 -0.000142 1673511868.105768
-0.001646 -0.007660 -0.000137 1673511868.110769
-0.001688 -0.007665 -0.000132 1673511868.115785
-0.001731 -0.007671 -0.000126 1673511868.120850
-0.001772 -0.007676 -0.000122 1673511868.125782
-0.001814 -0.007681 -0.000117 1673511868.130784
-0.001856 -0.007686 -0.000112 1673511868.135782
-0.001898 -0.007692 -0.000107 1673511868.140819
-0.001939 -0.007697 -0.000102 1673511868.145751
-0.001982 -0.007702 -0.000097 1673511868.150795
-0.001368 -0.006548 -0.000239 1673511868.161122
-0.001368 -0.006547 -0.000239 1673511868.161211
-0.001378 -0.006505 -0.000240 1673511868.165810
-0.001389 -0.006459 -0.000242 1673511868.170798
-0.001400 -0.006413 -0.000244 1673511868.175779
-0.001412 -0.006365 -0.000245 1673511868.180954
-0.001422 -0.006320 -0.000247 1673511868.185816
-0.001433 -0.006274 -0.000249 1673511868.190783
-0.001444 -0.006228 -0.000251 1673511868.195799
-0.001456 -0.006178 -0.000252 1673511868.201212
-0.001466 -0.006135 -0.000254 1673511868.205802
-0.001477 -0.006089 -0.000256 1673511868.210780
-0.001488 -0.006043 -0.000258 1673511868.215810
-0.001500 -0.005996 -0.000259 1673511868.220886
-0.001510 -0.005951 -0.000261 1673511868.225777
-0.001521 -0.005905 -0.000263 1673511868.230761
-0.001532 -0.005859 -0.000264 1673511868.235776
-0.001544 -0.005811 -0.000266 1673511868.240961
-0.001555 -0.005766 -0.000268 1673511868.245798
-0.001566 -0.005720 -0.000270 1673511868.250805
-0.001314 -0.007549 -0.000389 1673511868.267009
-0.001314 -0.007551 -0.000389 1673511868.267202
-0.001312 -0.007588 -0.000395 1673511868.272189
-0.001311 -0.007626 -0.000402 1673511868.277165
-0.001310 -0.007664 -0.000408 1673511868.282218
-0.001309 -0.007701 -0.000415 1673511868.287158
-0.001308 -0.007738 -0.000421 1673511868.292159
-0.001307 -0.007776 -0.000428 1673511868.297184
-0.001305 -0.007813 -0.000434 1673511868.302184
-0.001304 -0.007851 -0.000441 1673511868.307206
-0.001303 -0.007888 -0.000447 1673511868.312167
-0.001302 -0.007926 -0.000454 1673511868.317153
-0.001301 -0.007963 -0.000460 1673511868.322172
-0.001300 -0.008001 -0.000467 1673511868.327184
-0.001299 -0.008038 -0.000473 1673511868.332154
-0.001297 -0.008076 -0.000480 1673511868.337132
-0.001296 -0.008113 -0.000487 1673511868.342158
-0.001295 -0.008151 -0.000493 1673511868.347188
-0.001294 -0.008189 -0.000500 1673511868.352161
0.001330 -0.006997 -0.000508 1673511868.364797
0.001388 -0.006987 -0.000512 1673511868.367335
0.001390 -0.006987 -0.000512 1673511868.367433
0.001499 -0.006970 -0.000517 1673511868.372164
0.001613 -0.006951 -0.000524 1673511868.377129
0.001729 -0.006933 -0.000530 1673511868.382171
0.001843 -0.006915 -0.000536 1673511868.387144
0.001959 -0.006896 -0.000542 1673511868.392155
0.002073 -0.006878 -0.000548 1673511868.397150
0.002189 -0.006860 -0.000555 1673511868.402175
0.002304 -0.006841 -0.000561 1673511868.407188
0.002420 -0.006823 -0.000567 1673511868.412218
0.002533 -0.006805 -0.000573 1673511868.417154
0.002648 -0.006786 -0.000579 1673511868.422142
0.002764 -0.006768 -0.000586 1673511868.427197
0.002878 -0.006750 -0.000592 1673511868.432137
0.002994 -0.006731 -0.000598 1673511868.437192
0.003109 -0.006713 -0.000604 1673511868.442201
0.003224 -0.006694 -0.000610 1673511868.447204
0.003339 -0.006676 -0.000617 1673511868.452216
0.003460 -0.006657 -0.000623 1673511868.457450
0.003984 -0.005740 -0.000421 1673511868.463410
0.004084 -0.005696 -0.000418 1673511868.467175
0.004216 -0.005638 -0.000415 1673511868.472190
0.004347 -0.005581 -0.000412 1673511868.477138
0.004479 -0.005522 -0.000409 1673511868.482156
0.004612 -0.005464 -0.000406 1673511868.487161
0.004744 -0.005406 -0.000403 1673511868.492181
0.004875 -0.005349 -0.000400 1673511868.497119
0.005009 -0.005290 -0.000396 1673511868.502185
0.005140 -0.005233 -0.000393 1673511868.507157
0.005272 -0.005175 -0.000390 1673511868.512158
0.005404 -0.005117 -0.000387 1673511868.517138
0.005536 -0.005059 -0.000384 1673511868.522153
0.005669 -0.005000 -0.000381 1673511868.527200
