3.437220 0.169597 3.139129 1673513893.408329
3.436699 0.169580 3.139179 1673513893.413316
3.436176 0.169563 3.139229 1673513893.418325
3.435657 0.169545 3.139279 1673513893.423302
3.435134 0.169528 3.139328 1673513893.428310
3.434614 0.169511 3.139378 1673513893.433288
3.434090 0.169494 3.139428 1673513893.438313
3.433569 0.169477 3.139478 1673513893.443300
3.433050 0.169460 3.139527 1673513893.448275
3.432529 0.169442 3.139577 1673513893.453265
3.432002 0.169425 3.139627 1673513893.458313
3.431486 0.169408 3.139677 1673513893.463254
3.430960 0.169391 3.139727 1673513893.468288
3.430441 0.169374 3.139776 1673513893.473261
3.429912 0.169356 3.139827 1673513893.478326
3.429396 0.169339 3.139876 1673513893.483277
3.428045 0.168920 3.139372 1673513893.495961
3.428031 0.168919 3.139373 1673513893.496098
3.427806 0.168905 3.139382 1673513893.498241
3.427282 0.168871 3.139404 1673513893.503250
3.426758 0.168836 3.139426 1673513893.508262
3.426232 0.168802 3.139447 1673513893.513285
3.425708 0.168768 3.139469 1673513893.518298
3.425187 0.168735 3.139491 1673513893.523274
3.424665 0.168701 3.139512 1673513893.528262
3.424138 0.168666 3.139534 1673513893.533296
3.423612 0.168632 3.139556 1673513893.538328
3.423092 0.168598 3.139578 1673513893.543296
3.422567 0.168564 3.139599 1673513893.548310
3.422042 0.168530 3.139621 1673513893.553336
3.421525 0.168497 3.139643 1673513893.558270
3.421005 0.168463 3.139664 1673513893.563245
3.420476 0.168429 3.139686 1673513893.568295
3.419956 0.168395 3.139708 1673513893.573268
3.419425 0.168360 3.139730 1673513893.578345
3.418911 0.168327 3.139751 1673513893.583252
3.418387 0.168293 3.139773 1673513893.588260
3.418640 0.167264 3.140218 1673513893.596041
3.418429 0.167230 3.140236 1673513893.598265
3.417952 0.167152 3.140276 1673513893.603283
3.417475 0.167073 3.140316 1673513893.608306
3.417001 0.166996 3.140356 1673513893.613286
3.416525 0.166918 3.140397 1673513893.618293
3.416053 0.166841 3.140437 1673513893.623265
3.415575 0.166762 3.140477 1673513893.628290
3.415101 0.166685 3.140517 1673513893.633279
3.414624 0.166606 3.140557 1673513893.638304
3.414147 0.166528 3.140598 1673513893.643317
3.413676 0.166451 3.140638 1673513893.648277
3.413201 0.166373 3.140678 1673513893.653270
3.412721 0.166295 3.140718 1673513893.658328
3.412250 0.166218 3.140758 1673513893.663282
3.411774 0.166140 3.140798 1673513893.668291
3.411299 0.166062 3.140839 1673513893.673285
3.410822 0.165984 3.140879 1673513893.678302
3.410349 0.165906 3.140919 1673513893.683281
3.409875 0.165829 3.140959 1673513893.688265
3.409549 0.167527 3.140661 1673513893.695828
3.409322 0.167530 3.140672 1673513893.698307
3.408868 0.167537 3.140696 1673513893.703272
3.408383 0.167543 3.140721 1673513893.708578
3.407955 0.167549 3.140743 1673513893.713268
3.407489 0.167556 3.140767 1673513893.718356
3.407040 0.167562 3.140790 1673513893.723273
3.406581 0.167568 3.140814 1673513893.728291
3.406123 0.167574 3.140837 1673513893.733308
3.405667 0.167581 3.140861 1673513893.738299
3.405209 0.167587 3.140884 1673513893.743304
3.404756 0.167593 3.140908 1673513893.748259
3.404299 0.167600 3.140931 1673513893.753258
3.403841 0.167606 3.140955 1673513893.758269
3.403384 0.167612 3.140978 1673513893.763267
3.402927 0.167618 3.141002 1673513893.768273
3.402469 0.167625 3.141026 1673513893.773276
3.402002 0.167631 3.141050 1673513893.778389
3.401556 0.167637 3.141073 1673513893.783266
3.401099 0.167644 3.141096 1673513893.788267
3.397913 0.168460 3.141578 1673513893.805382
3.397907 0.168460 3.141578 1673513893.805440
3.397374 0.168501 -3.141566 1673513893.810511
3.396844 0.168541 -3.141525 1673513893.815555
3.396324 0.168580 -3.141485 1673513893.820512
3.395795 0.168620 -3.141445 1673513893.825547
3.395271 0.168660 -3.141404 1673513893.830534
3.394742 0.168700 -3.141364 1673513893.835565
3.394222 0.168739 -3.141324 1673513893.840516
3.393693 0.168779 -3.141283 1673513893.845556
3.393165 0.168819 -3.141242 1673513893.850579
3.392642 0.168859 -3.141202 1673513893.855555
3.392115 0.168899 -3.141161 1673513893.860572
3.391592 0.168938 -3.141121 1673513893.865548
3.391070 0.168978 -3.141081 1673513893.870519
3.390541 0.169018 -3.141040 1673513893.875557
3.390018 0.169057 -3.141000 1673513893.880529
3.389494 0.169097 -3.140960 1673513893.885520
3.388970 0.169137 -3.140919 1673513893.890505
3.387856 0.168456 -3.140512 1673513893.898537
3.387645 0.168458 -3.140490 1673513893.900506
3.387105 0.168464 -3.140433 1673513893.905528
3.386563 0.168471 -3.140377 1673513893.910572
3.386029 0.168477 -3.140322 1673513893.915540
3.385492 0.168483 -3.140266 1673513893.920537
3.384952 0.168489 -3.140210 1673513893.925562
3.384417 0.168495 -3.140154 1673513893.930533
3.383881 0.168502 -3.140098 1673513893.935519
3.383343 0.168508 -3.140042 1673513893.940527
3.382806 0.168514 -3.139987 1673513893.945525
3.382266 0.168520 -3.139931 1673513893.950549
3.381726 0.168527 -3.139874 1673513893.955567
3.381191 0.168533 -3.139819 1673513893.960551
3.380656 0.168539 -3.139763 1673513893.965522
3.380113 0.168545 -3.139707 1673513893.970573
3.379575 0.168552 -3.139651 1673513893.975580
3.379042 0.168558 -3.139595 1673513893.980543
3.378502 0.168564 -3.139539 1673513893.985565
3.377963 0.168570 -3.139483 1673513893.990578
3.377937 0.169086 -3.139607 1673513894.001453
3.377927 0.169086 -3.139606 1673513894.001559
3.377540 0.169109 -3.139570 1673513894.005528
3.377053 0.169137 -3.139525 1673513894.010527
3.376565 0.169166 -3.139480 1673513894.015544
3.376078 0.169194 -3.139435 1673513894.020542
3.375591 0.169223 -3.139390 1673513894.025542
3.375102 0.169251 -3.139345 1673513894.030561
3.374613 0.169280 -3.139300 1673513894.035580
3.374128 0.169308 -3.139255 1673513894.040564
3.373642 0.169336 -3.139210 1673513894.045553
3.373155 0.169365 -3.139165 1673513894.050550
3.372508 0.169402 -3.139105 1673513894.057194
3.371889 0.169438 -3.139048 1673513894.063551
3.371696 0.169450 -3.139030 1673513894.065536
3.371211 0.169478 -3.138985 1673513894.070515
3.370721 0.169507 -3.138940 1673513894.075545
3.370233 0.169535 -3.138894 1673513894.080560
3.369748 0.169563 -3.138850 1673513894.085536
3.369258 0.169592 -3.138804 1673513894.090573
3.368091 0.169813 -3.138674 1673513894.100687
3.368075 0.169814 -3.138673 1673513894.100843
3.367609 0.169847 -3.138629 1673513894.105550
3.367118 0.169883 -3.138582 1673513894.110507
3.366624 0.169918 -3.138536 1673513894.115503
3.366130 0.169954 -3.138489 1673513894.120494
3.365332 0.170012 -3.138414 1673513894.128551
3.365053 0.170032 -3.138387 1673513894.131364
3.364638 0.170062 -3.138348 1673513894.135558
3.364148 0.170097 -3.138302 1673513894.140503
3.363646 0.170133 -3.138254 1673513894.145572
3.363156 0.170169 -3.138208 1673513894.150524
3.362656 0.170205 -3.138161 1673513894.155570
3.362165 0.170240 -3.138115 1673513894.160529
3.361669 0.170276 -3.138068 1673513894.165540
3.361176 0.170311 -3.138021 1673513894.170518
3.360671 0.170348 -3.137973 1673513894.175618
3.360178 0.170383 -3.137927 1673513894.180603
3.359689 0.170419 -3.137881 1673513894.185542
3.359195 0.170454 -3.137834 1673513894.190526
3.359934 0.169192 -3.138248 1673513894.200136
3.359894 0.169190 -3.138246 1673513894.200617
3.359485 0.169166 -3.138223 1673513894.205509
3.359066 0.169141 -3.138199 1673513894.210516
3.358647 0.169116 -3.138175 1673513894.215516
3.358222 0.169091 -3.138151 1673513894.220598
3.357810 0.169067 -3.138127 1673513894.225522
3.357391 0.169042 -3.138103 1673513894.230537
3.356973 0.169017 -3.138079 1673513894.235528
3.356549 0.168992 -3.138055 1673513894.240593
3.356134 0.168968 -3.138032 1673513894.245551
3.355715 0.168943 -3.138008 1673513894.250559
3.355300 0.168919 -3.137984 1673513894.255526
3.354882 0.168894 -3.137960 1673513894.260520
3.354463 0.168869 -3.137936 1673513894.265529
3.354047 0.168845 -3.137912 1673513894.270503
3.353624 0.168820 -3.137888 1673513894.275555
3.353206 0.168795 -3.137864 1673513894.280553
3.352789 0.168771 -3.137841 1673513894.285539
3.352373 0.168746 -3.137817 1673513894.290506
3.351953 0.168721 -3.137793 1673513894.295523
3.351975 0.167892 -3.138197 1673513894.301657
3.351666 0.167844 -3.138194 1673513894.305571
3.351278 0.167785 -3.138189 1673513894.310500
3.350882 0.167724 -3.138185 1673513894.315521
3.350488 0.167663 -3.138181 1673513894.320515
3.350091 0.167602 -3.138176 1673513894.325546
3.349696 0.167541 -3.138172 1673513894.330560
3.349304 0.167480 -3.138168 1673513894.335537
3.348906 0.167419 -3.138163 1673513894.340584
3.348513 0.167359 -3.138159 1673513894.345567
3.348122 0.167298 -3.138155 1673513894.350521
3.347730 0.167238 -3.138151 1673513894.355498
3.347335 0.167177 -3.138146 1673513894.360513
3.346941 0.167116 -3.138142 1673513894.365502
3.346544 0.167055 -3.138138 1673513894.370538
3.346149 0.166994 -3.138133 1673513894.375546
3.345756 0.166934 -3.138129 1673513894.380539
3.345361 0.166873 -3.138125 1673513894.385545
3.344964 0.166812 -3.138120 1673513894.390575
3.344574 0.166752 -3.138116 1673513894.395530
3.343312 0.167006 -3.137993 1673513894.402452
3.343050 0.166978 -3.137987 1673513894.405521
3.342624 0.166932 -3.137978 1673513894.410507
3.342196 0.166887 -3.137968 1673513894.415525
3.341764 0.166841 -3.137958 1673513894.420595
3.341339 0.166795 -3.137949 1673513894.425578
3.340919 0.166751 -3.137939 1673513894.430493
3.340490 0.166705 -3.137930 1673513894.435529
3.340062 0.166659 -3.137920 1673513894.440541
3.339638 0.166614 -3.137910 1673513894.445510
3.339210 0.166568 -3.137901 1673513894.450529
3.338784 0.166523 -3.137891 1673513894.455528
3.338355 0.166477 -3.137881 1673513894.460558
3.337929 0.166432 -3.137872 1673513894.465547
3.337504 0.166386 -3.137862 1673513894.470526
3.337075 0.166341 -3.137853 1673513894.475559
3.336651 0.166296 -3.137843 1673513894.480525
3.336225 0.166250 -3.137834 1673513894.485521
3.335794 0.166204 -3.137824 1673513894.490571
3.335373 0.166159 -3.137814 1673513894.495502
3.332804 0.166541 -3.138202 1673513894.507831
3.332793 0.166540 -3.138202 1673513894.507944
3.332540 0.166528 -3.138207 1673513894.510519
3.332042 0.166503 -3.138215 1673513894.515569
3.331555 0.166480 -3.138223 1673513894.520513
3.331062 0.166455 -3.138231 1673513894.525528
3.330564 0.166431 -3.138240 1673513894.530581
3.330071 0.166407 -3.138248 1673513894.535582
3.329580 0.166383 -3.138256 1673513894.540574
3.329085 0.166359 -3.138265 1673513894.545596
3.328595 0.166335 -3.138273 1673513894.550571
3.328106 0.166311 -3.138281 1673513894.555537
3.327609 0.166287 -3.138289 1673513894.560582
3.327119 0.166263 -3.138297 1673513894.565561
3.326626 0.166239 -3.138306 1673513894.570563
3.326134 0.166215 -3.138314 1673513894.575569
3.325645 0.166191 -3.138322 1673513894.580527
3.325151 0.166167 -3.138330 1673513894.585545
3.324658 0.166142 -3.138339 1673513894.590552
3.324163 0.166118 -3.138347 1673513894.595577
3.322249 0.166195 -3.138734 1673513894.605741
3.322213 0.166194 -3.138735 1673513894.606073
3.321735 0.166177 -3.138757 1673513894.610557
3.321202 0.166158 -3.138782 1673513894.615559
3.320668 0.166140 -3.138807 1673513894.620567
3.320138 0.166122 -3.138831 1673513894.625535
3.319605 0.166103 -3.138856 1673513894.630540
3.319071 0.166085 -3.138881 1673513894.635548
3.318541 0.166066 -3.138905 1673513894.640517
3.318002 0.166047 -3.138930 1673513894.645571
3.317476 0.166029 -3.138955 1673513894.650507
3.316939 0.166011 -3.138980 1673513894.655542
3.316407 0.165992 -3.139004 1673513894.660530
3.315873 0.165974 -3.139029 1673513894.665546
3.315342 0.165955 -3.139054 1673513894.670523
3.314807 0.165937 -3.139078 1673513894.675541
3.314278 0.165918 -3.139103 1673513894.680506
3.313742 0.165900 -3.139128 1673513894.685533
3.313210 0.165881 -3.139153 1673513894.690524
3.312675 0.165863 -3.139177 1673513894.695541
3.312139 0.165844 -3.139202 1673513894.700566
3.311529 0.165309 -3.139360 1673513894.708419
3.311309 0.165292 -3.139373 1673513894.710521
3.310788 0.165251 -3.139403 1673513894.715502
3.310263 0.165211 -3.139433 1673513894.720510
3.309739 0.165170 -3.139463 1673513894.725524
3.309208 0.165129 -3.139493 1673513894.730603
3.308692 0.165089 -3.139523 1673513894.735527
3.308170 0.165048 -3.139553 1673513894.740521
3.307647 0.165007 -3.139583 1673513894.745518
3.307120 0.164966 -3.139613 1673513894.750552
3.306593 0.164925 -3.139643 1673513894.755589
3.306079 0.164885 -3.139672 1673513894.760506
3.305552 0.164844 -3.139702 1673513894.765546
3.305030 0.164804 -3.139732 1673513894.770528
3.304510 0.164764 -3.139762 1673513894.775501
3.303985 0.164723 -3.139792 1673513894.780521
3.303457 0.164682 -3.139822 1673513894.785567
3.302937 0.164641 -3.139852 1673513894.790533
3.302412 0.164600 -3.139882 1673513894.795554
3.301467 0.165866 -3.140007 1673513894.807861
3.301457 0.165867 -3.140007 1673513894.807950
3.301200 0.165877 -3.140024 1673513894.810488
3.300691 0.165897 -3.140056 1673513894.815495
3.300181 0.165917 -3.140088 1673513894.820514
3.299667 0.165937 -3.140121 1673513894.825574
3.299161 0.165957 -3.140153 1673513894.830558
3.298652 0.165977 -3.140185 1673513894.835562
3.298146 0.165996 -3.140217 1673513894.840551
3.297638 0.166016 -3.140250 1673513894.845550
3.297124 0.166037 -3.140282 1673513894.850610
3.296614 0.166057 -3.140314 1673513894.855623
3.296119 0.166076 -3.140346 1673513894.860503
3.295606 0.166096 -3.140378 1673513894.865550
3.295100 0.166116 -3.140410 1673513894.870530
3.294590 0.166136 -3.140443 1673513894.875554
3.294081 0.166156 -3.140475 1673513894.880565
3.293578 0.166176 -3.140507 1673513894.885514
3.293068 0.166196 -3.140539 1673513894.890535
3.292560 0.166216 -3.140572 1673513894.895531
3.291252 0.166232 -3.141110 1673513894.906310
3.291239 0.166232 -3.141111 1673513894.906429
3.290815 0.166248 -3.141155 1673513894.910523
3.290293 0.166266 -3.141209 1673513894.915569
3.289782 0.166285 -3.141262 1673513894.920510
3.289264 0.166304 -3.141315 1673513894.925507
3.288745 0.166322 -3.141369 1673513894.930522
3.288227 0.166341 -3.141422 1673513894.935522
3.287709 0.166360 -3.141476 1673513894.940531
3.287190 0.166379 -3.141529 1673513894.945547
3.286676 0.166397 -3.141582 1673513894.950508
3.286154 0.166416 3.141549 1673513894.955554
3.285639 0.166435 3.141496 1673513894.960521
3.285121 0.166453 3.141442 1673513894.965527
3.284604 0.166472 3.141389 1673513894.970519
3.284085 0.166491 3.141335 1673513894.975540
3.283567 0.166510 3.141282 1673513894.980542
3.283050 0.166528 3.141228 1673513894.985536
3.282531 0.166547 3.141175 1673513894.990551
3.282017 0.166566 3.141122 1673513894.995516
3.281495 0.166585 3.141068 1673513895.000551
3.282680 0.164988 3.141170 1673513895.007826
3.282447 0.164959 3.141145 1673513895.010534
3.282015 0.164904 3.141100 1673513895.015554
3.281584 0.164849 3.141054 1673513895.020558
3.281156 0.164795 3.141009 1673513895.025535
3.280725 0.164741 3.140964 1673513895.030549
3.280289 0.164686 3.140918 1673513895.035607
3.279864 0.164632 3.140873 1673513895.040542
3.279434 0.164577 3.140828 1673513895.045540
3.279003 0.164523 3.140782 1673513895.050548
3.278574 0.164469 3.140737 1673513895.055542
3.278143 0.164414 3.140692 1673513895.060548
3.277713 0.164360 3.140646 1673513895.065537
3.277283 0.164305 3.140601 1673513895.070536
3.276855 0.164251 3.140556 1673513895.075513
3.276419 0.164196 3.140510 1673513895.080580
3.275992 0.164142 3.140465 1673513895.085535
3.275561 0.164087 3.140419 1673513895.090545
3.275129 0.164033 3.140374 1673513895.095569
3.274704 0.163979 3.140329 1673513895.100508
3.273493 0.164059 3.140713 1673513895.108700
3.273327 0.164042 3.140704 1673513895.110527
3.272875 0.163995 3.140680 1673513895.115518
3.272418 0.163948 3.140655 1673513895.120564
3.271965 0.163901 3.140630 1673513895.125560
3.271511 0.163854 3.140605 1673513895.130565
3.271059 0.163807 3.140581 1673513895.135562
3.270607 0.163761 3.140556 1673513895.140545
3.270152 0.163714 3.140531 1673513895.145567
3.269703 0.163667 3.140507 1673513895.150526
3.269250 0.163620 3.140482 1673513895.155520
3.268795 0.163573 3.140457 1673513895.160545
3.268338 0.163526 3.140433 1673513895.165579
3.267886 0.163479 3.140408 1673513895.170573
3.267435 0.163433 3.140383 1673513895.175551
3.266980 0.163386 3.140358 1673513895.180571
3.266532 0.163339 3.140334 1673513895.185517
3.266073 0.163292 3.140309 1673513895.190574
3.265627 0.163246 3.140285 1673513895.195501
3.265171 0.163199 3.140260 1673513895.200533
3.263615 0.164321 3.140130 1673513895.213759
3.263608 0.164321 3.140130 1673513895.213836
3.263453 0.164323 3.140121 1673513895.215497
3.262982 0.164330 3.140093 1673513895.220521
3.262511 0.164338 3.140065 1673513895.225547
3.262034 0.164345 3.140037 1673513895.230634
3.261573 0.164352 3.140010 1673513895.235551
3.261103 0.164359 3.139983 1673513895.240571
3.260637 0.164366 3.139955 1673513895.245537
3.260167 0.164374 3.139928 1673513895.250559
3.259699 0.164381 3.139900 1673513895.255547
3.259229 0.164388 3.139873 1673513895.260562
3.258757 0.164395 3.139845 1673513895.265600
3.258293 0.164403 3.139818 1673513895.270548
3.257821 0.164410 3.139790 1673513895.275583
3.257357 0.164417 3.139763 1673513895.280543
3.256888 0.164424 3.139735 1673513895.285537
3.256422 0.164431 3.139708 1673513895.290518
3.255950 0.164439 3.139680 1673513895.295555
3.255487 0.164446 3.139653 1673513895.300496
3.253592 0.165811 3.139770 1673513895.311779
3.253483 0.165826 3.139766 1673513895.312857
3.253210 0.165862 3.139755 1673513895.315556
3.252707 0.165929 3.139736 1673513895.320528
3.252198 0.165996 3.139716 1673513895.325553
3.251691 0.166064 3.139696 1673513895.330572
3.251186 0.166131 3.139677 1673513895.335563
3.250681 0.166198 3.139657 1673513895.340546
3.250177 0.166265 3.139638 1673513895.345528
3.249669 0.166333 3.139618 1673513895.350550
3.249166 0.166400 3.139599 1673513895.355523
3.248657 0.166467 3.139579 1673513895.360558
3.248153 0.166534 3.139560 1673513895.365542
3.247649 0.166601 3.139540 1673513895.370522
3.247142 0.166669 3.139521 1673513895.375534
3.246637 0.166736 3.139501 1673513895.380522
3.246130 0.166803 3.139482 1673513895.385530
3.245625 0.166870 3.139462 1673513895.390524
3.245116 0.166938 3.139443 1673513895.395552
3.244611 0.167005 3.139423 1673513895.400545
3.244103 0.167073 3.139403 1673513895.405564
3.241565 0.166592 3.138818 1673513895.416075
3.241554 0.166593 3.138817 1673513895.416165
3.241056 0.166628 3.138779 1673513895.420542
3.240487 0.166669 3.138736 1673513895.425533
3.239919 0.166709 3.138693 1673513895.430522
3.239345 0.166750 3.138650 1673513895.435560
3.238779 0.166790 3.138607 1673513895.440528
3.238210 0.166830 3.138564 1673513895.445521
3.237640 0.166871 3.138521 1673513895.450523
3.237070 0.166911 3.138478 1673513895.455530
3.236498 0.166952 3.138435 1673513895.460552
3.235930 0.166992 3.138392 1673513895.465535
3.235357 0.167033 3.138348 1673513895.470565
3.234795 0.167073 3.138306 1673513895.475505
3.234219 0.167114 3.138262 1673513895.480561
3.233649 0.167154 3.138219 1673513895.485566
3.233081 0.167194 3.138176 1673513895.490552
3.232503 0.167235 3.138132 1673513895.495626
3.231943 0.167275 3.138090 1673513895.500536
3.232092 0.166195 3.137788 1673513895.511893
3.232074 0.166195 3.137786 1673513895.512064
3.231727 0.166186 3.137751 1673513895.515502
3.231220 0.166174 3.137698 1673513895.520529
3.230716 0.166161 3.137646 1673513895.525532
3.230198 0.166148 3.137592 1673513895.530657
3.229705 0.166136 3.137541 1673513895.535546
3.229197 0.166123 3.137488 1673513895.540579
3.228694 0.166111 3.137436 1673513895.545570
3.228189 0.166098 3.137384 1673513895.550569
3.227687 0.166086 3.137332 1673513895.555545
3.227182 0.166074 3.137280 1673513895.560551
3.226678 0.166061 3.137227 1673513895.565552
3.226176 0.166049 3.137175 1673513895.570526
3.225669 0.166036 3.137123 1673513895.575548
3.225166 0.166024 3.137071 1673513895.580537
3.224660 0.166011 3.137018 1673513895.585548
3.224156 0.165999 3.136966 1673513895.590548
3.223647 0.165986 3.136913 1673513895.595587
3.223149 0.165974 3.136862 1673513895.600531
3.222642 0.165961 3.136809 1673513895.605550
3.222560 0.166415 3.137115 1673513895.613234
3.222347 0.166419 3.137100 1673513895.615489
3.221865 0.166428 3.137064 1673513895.620579
3.221397 0.166437 3.137030 1673513895.625521
3.220918 0.166445 3.136994 1673513895.630583
3.220445 0.166454 3.136959 1673513895.635580
3.219980 0.166463 3.136925 1673513895.640493
3.219502 0.166472 3.136890 1673513895.645538
3.219026 0.166480 3.136855 1673513895.650572
3.218551 0.166489 3.136820 1673513895.655587
3.218082 0.166498 3.136785 1673513895.660547
3.217610 0.166507 3.136750 1673513895.665524
3.217131 0.166516 3.136715 1673513895.670590
3.216662 0.166524 3.136680 1673513895.675546
3.216177 0.166533 3.136645 1673513895.680662
3.215716 0.166542 3.136611 1673513895.685542
3.215244 0.166551 3.136576 1673513895.690523
3.214770 0.166559 3.136541 1673513895.695536
3.214299 0.166568 3.136506 1673513895.700503
3.213824 0.166577 3.136471 1673513895.705524
3.214304 0.165427 3.136654 1673513895.715477
3.214282 0.165424 3.136653 1673513895.715748
3.213891 0.165383 3.136631 1673513895.720512
3.213480 0.165340 3.136607 1673513895.725518
3.213071 0.165297 3.136583 1673513895.730513
3.212659 0.165254 3.136559 1673513895.735528
3.212249 0.165211 3.136536 1673513895.740531
3.211838 0.165168 3.136512 1673513895.745537
3.211427 0.165124 3.136488 1673513895.750548
3.211013 0.165081 3.136464 1673513895.755594
3.210609 0.165038 3.136441 1673513895.760517
3.210194 0.164995 3.136417 1673513895.765586
3.209785 0.164952 3.136393 1673513895.770571
3.209376 0.164909 3.136370 1673513895.775558
3.208966 0.164866 3.136346 1673513895.780556
3.208556 0.164823 3.136323 1673513895.785549
3.208147 0.164780 3.136299 1673513895.790537
3.207739 0.164737 3.136275 1673513895.795514
3.207328 0.164694 3.136252 1673513895.800523
3.206917 0.164651 3.136228 1673513895.805534
3.205529 0.165715 3.135746 1673513895.816166
3.205522 0.165716 3.135745 1673513895.816251
3.205152 0.165723 3.135709 1673513895.820527
3.204718 0.165731 3.135666 1673513895.825535
3.204281 0.165739 3.135622 1673513895.830578
3.203855 0.165748 3.135580 1673513895.835505
3.203420 0.165756 3.135537 1673513895.840526
3.202985 0.165764 3.135494 1673513895.845549
3.202528 0.165773 3.135449 1673513895.850821
3.202121 0.165781 3.135409 1673513895.855522
3.201687 0.165789 3.135366 1673513895.860527
3.201254 0.165798 3.135323 1673513895.865529
3.200815 0.165806 3.135279 1673513895.870598
3.200389 0.165814 3.135237 1673513895.875513
3.199952 0.165823 3.135194 1673513895.880569
3.199518 0.165831 3.135151 1673513895.885570
3.199088 0.165839 3.135108 1673513895.890540
3.198658 0.165848 3.135066 1673513895.895506
3.198225 0.165856 3.135023 1673513895.900501
3.197790 0.165864 3.134980 1673513895.905524
3.194161 0.165982 3.134983 1673513895.922963
3.194136 0.165983 3.134981 1673513895.923205
3.193617 0.165995 3.134945 1673513895.928169
3.193103 0.166007 3.134909 1673513895.933091
3.192577 0.166019 3.134872 1673513895.938125
3.192055 0.166031 3.134836 1673513895.943123
3.191529 0.166043 3.134799 1673513895.948152
3.191011 0.166055 3.134763 1673513895.953110
3.190480 0.166067 3.134726 1673513895.958193
3.189965 0.166079 3.134690 1673513895.963121
3.189436 0.166091 3.134653 1673513895.968174
3.188917 0.166103 3.134617 1673513895.973145
3.188394 0.166116 3.134580 1673513895.978153
3.187873 0.166128 3.134544 1673513895.983137
3.187351 0.166140 3.134508 1673513895.988128
3.186832 0.166152 3.134471 1673513895.993092
3.186304 0.166164 3.134435 1673513895.998147
3.185776 0.166176 3.134398 1673513896.003200
3.185261 0.166188 3.134362 1673513896.008126
3.182940 0.165358 3.134651 1673513896.021584
3.182933 0.165358 3.134650 1673513896.021645
3.182615 0.165344 3.134639 1673513896.024477
3.182208 0.165326 3.134625 1673513896.028096
3.181641 0.165301 3.134605 1673513896.033142
3.181082 0.165276 3.134585 1673513896.038120
3.180515 0.165250 3.134565 1673513896.043165
3.179947 0.165225 3.134545 1673513896.048215
3.179398 0.165201 3.134526 1673513896.053105
3.178833 0.165176 3.134506 1673513896.058131
3.178269 0.165150 3.134486 1673513896.063153
3.177707 0.165125 3.134466 1673513896.068154
3.177141 0.165100 3.134446 1673513896.073186
3.176586 0.165076 3.134427 1673513896.078122
3.176021 0.165050 3.134407 1673513896.083155
3.175461 0.165025 3.134387 1673513896.088137
3.174902 0.165000 3.134368 1673513896.093114
3.174329 0.164975 3.134347 1673513896.098214
3.173769 0.164950 3.134328 1673513896.103189
3.173201 0.164925 3.134308 1673513896.108246
3.171951 0.164651 3.134750 1673513896.117762
3.171912 0.164648 3.134750 1673513896.118102
3.171343 0.164613 3.134751 1673513896.123088
3.170765 0.164578 3.134753 1673513896.128158
3.170198 0.164543 3.134755 1673513896.133132
3.169624 0.164507 3.134757 1673513896.138166
3.169049 0.164472 3.134758 1673513896.143216
3.168488 0.164437 3.134760 1673513896.148130
3.167916 0.164402 3.134762 1673513896.153151
3.167309 0.164364 3.134764 1673513896.158472
3.166780 0.164332 3.134765 1673513896.163112
3.166205 0.164296 3.134767 1673513896.168156
3.165639 0.164261 3.134769 1673513896.173124
3.165066 0.164226 3.134770 1673513896.178149
3.164476 0.164189 3.134772 1673513896.183328
3.163929 0.164156 3.134774 1673513896.188127
3.163342 0.164119 3.134776 1673513896.193271
3.162788 0.164085 3.134777 1673513896.198128
3.161933 0.164032 3.134780 1673513896.205627
3.161651 0.164015 3.134781 1673513896.208102
3.161168 0.163608 3.134899 1673513896.218394
3.161157 0.163607 3.134899 1673513896.218493
3.160660 0.163561 3.134906 1673513896.223108
3.160120 0.163510 3.134913 1673513896.228114
3.159576 0.163460 3.134919 1673513896.233155
3.158379 0.163348 3.134935 1673513896.244267
3.158319 0.163343 3.134936 1673513896.244816
3.157966 0.163310 3.134940 1673513896.248092
3.157422 0.163259 3.134947 1673513896.253136
3.156882 0.163209 3.134954 1673513896.258146
3.156335 0.163158 3.134961 1673513896.263222
3.155804 0.163108 3.134968 1673513896.268151
3.155266 0.163058 3.134975 1673513896.273140
3.154729 0.163008 3.134981 1673513896.278117
3.154180 0.162957 3.134988 1673513896.283214
3.153651 0.162908 3.134995 1673513896.288119
3.153109 0.162857 3.135002 1673513896.293145
3.152570 0.162807 3.135009 1673513896.298151
3.152026 0.162756 3.135016 1673513896.303191
3.151492 0.162707 3.135023 1673513896.308145
3.150109 0.163849 3.135305 1673513896.318121
3.150102 0.163849 3.135306 1673513896.318188
3.149559 0.163855 3.135324 1673513896.323092
3.148998 0.163862 3.135344 1673513896.328173
3.148438 0.163868 3.135363 1673513896.333231
3.147895 0.163874 3.135382 1673513896.338146
3.147346 0.163880 3.135401 1673513896.343108
3.146791 0.163887 3.135420 1673513896.348121
3.146226 0.163893 3.135439 1673513896.353237
3.145684 0.163899 3.135458 1673513896.358135
3.145133 0.163905 3.135477 1673513896.363115
3.144581 0.163911 3.135496 1673513896.368108
3.144027 0.163918 3.135515 1673513896.373115
3.143469 0.163924 3.135535 1673513896.378162
3.142908 0.163930 3.135554 1673513896.383230
3.142365 0.163936 3.135573 1673513896.388141
3.141809 0.163943 3.135592 1673513896.393167
3.141261 0.163949 3.135611 1673513896.398131
3.140711 0.163955 3.135630 1673513896.403100
3.140157 0.163961 3.135649 1673513896.408105
3.139572 0.163968 3.135669 1673513896.413398
3.138806 0.163091 3.135566 1673513896.421149
3.138590 0.163078 3.135571 1673513896.423113
3.138041 0.163045 3.135584 1673513896.428112
3.137488 0.163011 3.135598 1673513896.433155
3.136945 0.162978 3.135611 1673513896.438097
3.136397 0.162945 3.135624 1673513896.443089
3.135849 0.162912 3.135637 1673513896.448086
3.135291 0.162878 3.135651 1673513896.453164
3.134747 0.162845 3.135664 1673513896.458117
3.134196 0.162812 3.135677 1673513896.463137
3.133649 0.162779 3.135690 1673513896.468119
3.133100 0.162745 3.135703 1673513896.473120
3.132552 0.162712 3.135716 1673513896.478115
3.131999 0.162679 3.135730 1673513896.483149
3.131457 0.162646 3.135743 1673513896.488088
3.130884 0.162611 3.135756 1673513896.493306
3.130356 0.162579 3.135769 1673513896.498111
3.129809 0.162546 3.135782 1673513896.503097
3.129256 0.162512 3.135796 1673513896.508135
3.128705 0.162479 3.135809 1673513896.513153
3.129076 0.164736 3.135758 1673513896.522620
3.129031 0.164742 3.135759 1673513896.523078
3.128542 0.164812 3.135769 1673513896.528111
3.128051 0.164882 3.135779 1673513896.533156
3.127570 0.164951 3.135789 1673513896.538095
3.127081 0.165021 3.135799 1673513896.543126
3.126596 0.165090 3.135809 1673513896.548109
3.126102 0.165160 3.135819 1673513896.553183
3.125625 0.165229 3.135828 1673513896.558094
3.125136 0.165298 3.135838 1673513896.563119
3.124651 0.165368 3.135848 1673513896.568103
3.124164 0.165437 3.135858 1673513896.573102
3.123672 0.165508 3.135868 1673513896.578164
3.123183 0.165577 3.135878 1673513896.583195
3.122700 0.165646 3.135887 1673513896.588151
3.122217 0.165715 3.135897 1673513896.593123
3.121726 0.165786 3.135907 1673513896.598164
3.121238 0.165855 3.135917 1673513896.603187
3.120756 0.165924 3.135927 1673513896.608131
3.120221 0.166000 3.135938 1673513896.613630
3.121031 0.166765 3.135953 1673513896.624074
3.121022 0.166767 3.135953 1673513896.624186
3.120703 0.166843 3.135961 1673513896.628114
3.120299 0.166939 3.135970 1673513896.633093
3.119890 0.167037 3.135980 1673513896.638133
3.119483 0.167134 3.135990 1673513896.643137
3.119079 0.167230 3.135999 1673513896.648115
3.118672 0.167327 3.136009 1673513896.653132
3.118267 0.167424 3.136019 1673513896.658114
3.117860 0.167521 3.136028 1673513896.663127
3.117453 0.167618 3.136038 1673513896.668134
3.117044 0.167715 3.136048 1673513896.673172
3.116641 0.167811 3.136057 1673513896.678136
3.116230 0.167909 3.136067 1673513896.683196
3.115830 0.168005 3.136076 1673513896.688128
3.115423 0.168102 3.136086 1673513896.693144
3.115016 0.168199 3.136096 1673513896.698155
3.114615 0.168294 3.136105 1673513896.703090
3.114206 0.168392 3.136115 1673513896.708132
3.113780 0.168493 3.136125 1673513896.713371
3.112555 0.167062 3.136566 1673513896.725179
3.112507 0.167065 3.136569 1673513896.725756
3.112313 0.167076 3.136582 1673513896.728080
3.111894 0.167100 3.136610 1673513896.733094
3.111470 0.167124 3.136639 1673513896.738166
3.111052 0.167148 3.136667 1673513896.743173
3.110634 0.167172 3.136695 1673513896.748175
3.110213 0.167196 3.136723 1673513896.753221
3.109804 0.167219 3.136751 1673513896.758117
3.109387 0.167243 3.136779 1673513896.763112
3.108969 0.167267 3.136807 1673513896.768108
3.108548 0.167291 3.136835 1673513896.773149
3.108131 0.167315 3.136863 1673513896.778135
3.107711 0.167339 3.136891 1673513896.783166
3.107296 0.167362 3.136919 1673513896.788131
3.106878 0.167386 3.136947 1673513896.793140
3.106461 0.167410 3.136975 1673513896.798127
3.106042 0.167434 3.137003 1673513896.803143
3.105625 0.167458 3.137031 1673513896.808137
3.105207 0.167482 3.137059 1673513896.813145
3.104790 0.167505 3.137087 1673513896.818129
3.101478 0.167295 3.137548 1673513896.824931
3.101127 0.167304 3.137578 1673513896.828185
3.100599 0.167317 3.137624 1673513896.833078
3.100052 0.167330 3.137672 1673513896.838149
3.099512 0.167343 3.137719 1673513896.843154
3.098975 0.167356 3.137765 1673513896.848124
3.098436 0.167369 3.137812 1673513896.853121
3.097895 0.167382 3.137859 1673513896.858139
3.097354 0.167395 3.137906 1673513896.863148
3.096818 0.167408 3.137952 1673513896.868117
3.096275 0.167421 3.137999 1673513896.873146
3.095741 0.167434 3.138046 1673513896.878101
3.095001 0.167452 3.138110 1673513896.884952
3.094660 0.167460 3.138139 1673513896.888113
3.094119 0.167474 3.138186 1673513896.893131
3.093581 0.167487 3.138233 1673513896.898118
3.093040 0.167500 3.138280 1673513896.903133
3.092501 0.167513 3.138327 1673513896.908128
3.091951 0.167526 3.138374 1673513896.913223
3.090635 0.166121 3.138367 1673513896.923688
3.090611 0.166119 3.138369 1673513896.923904
3.090148 0.166075 3.138405 1673513896.928133
3.089604 0.166024 3.138446 1673513896.933094
3.089047 0.165971 3.138489 1673513896.938174
3.088506 0.165920 3.138531 1673513896.943112
3.087957 0.165868 3.138573 1673513896.948126
3.087409 0.165816 3.138615 1673513896.953120
3.086854 0.165764 3.138658 1673513896.958189
3.086305 0.165712 3.138700 1673513896.963197
3.085762 0.165661 3.138741 1673513896.968148
3.085204 0.165608 3.138784 1673513896.973241
3.084663 0.165557 3.138826 1673513896.978176
3.084120 0.165506 3.138867 1673513896.983137
3.083571 0.165454 3.138909 1673513896.988148
3.083021 0.165402 3.138952 1673513896.993166
3.082473 0.165350 3.138994 1673513896.998164
3.081919 0.165298 3.139036 1673513897.003218
3.081382 0.165247 3.139077 1673513897.008114
3.080837 0.165196 3.139119 1673513897.013092
3.080265 0.165142 3.139163 1673513897.018306
3.080404 0.164906 3.138642 1673513897.026695
3.080264 0.164889 3.138647 1673513897.028098
3.079740 0.164828 3.138663 1673513897.033327
3.079258 0.164772 3.138679 1673513897.038135
3.078753 0.164713 3.138695 1673513897.043174
3.078260 0.164656 3.138710 1673513897.048092
3.077753 0.164597 3.138726 1673513897.053155
3.077250 0.164538 3.138742 1673513897.058175
3.076751 0.164480 3.138758 1673513897.063160
3.076247 0.164421 3.138774 1673513897.068185
3.075748 0.164363 3.138789 1673513897.073172
3.075250 0.164305 3.138805 1673513897.078142
3.074750 0.164247 3.138821 1673513897.083130
3.074249 0.164188 3.138837 1673513897.088130
3.073742 0.164129 3.138853 1673513897.093188
3.073245 0.164072 3.138868 1673513897.098147
3.072745 0.164013 3.138884 1673513897.103142
3.072246 0.163955 3.138900 1673513897.108118
3.071744 0.163897 3.138916 1673513897.113122
3.071245 0.163839 3.138931 1673513897.118110
3.072292 0.162985 3.138543 1673513897.127322
3.072161 0.162956 3.138543 1673513897.128909
3.071809 0.162878 3.138540 1673513897.133174
3.071399 0.162787 3.138538 1673513897.138124
3.070984 0.162695 3.138535 1673513897.143148
3.070569 0.162604 3.138532 1673513897.148162
3.070135 0.162508 3.138529 1673513897.153410
3.069746 0.162421 3.138527 1673513897.158122
3.069328 0.162329 3.138524 1673513897.163179
3.068919 0.162238 3.138521 1673513897.168125
3.068506 0.162147 3.138518 1673513897.173120
3.068092 0.162055 3.138516 1673513897.178132
3.067667 0.161961 3.138513 1673513897.183268
3.067264 0.161872 3.138510 1673513897.188141
3.066852 0.161781 3.138507 1673513897.193125
3.066438 0.161689 3.138505 1673513897.198128
3.066027 0.161598 3.138502 1673513897.203106
3.065612 0.161506 3.138499 1673513897.208122
3.065198 0.161414 3.138497 1673513897.213133
3.064784 0.161323 3.138494 1673513897.218138
3.062082 0.163002 3.138619 1673513897.231050
3.062035 0.163001 3.138619 1673513897.231531
3.061880 0.162998 3.138620 1673513897.233135
3.061393 0.162990 3.138623 1673513897.238166
3.060912 0.162981 3.138626 1673513897.243130
3.060430 0.162973 3.138629 1673513897.248103
3.059934 0.162964 3.138632 1673513897.253224
3.059459 0.162956 3.138635 1673513897.258135
3.058969 0.162947 3.138638 1673513897.263185
3.058492 0.162939 3.138641 1673513897.268112
3.058005 0.162930 3.138644 1673513897.273140
3.057524 0.162922 3.138647 1673513897.278105
3.057029 0.162913 3.138650 1673513897.283217
3.056554 0.162905 3.138653 1673513897.288122
3.056065 0.162896 3.138656 1673513897.293178
3.055586 0.162888 3.138659 1673513897.298118
3.055105 0.162880 3.138662 1673513897.303087
3.054617 0.162871 3.138665 1673513897.308122
3.054132 0.162862 3.138668 1673513897.313130
3.053649 0.162854 3.138671 1673513897.318123
3.050478 0.162430 3.139510 1673513897.330721
3.050470 0.162430 3.139510 1673513897.330797
3.050207 0.162418 3.139529 1673513897.333102
3.049636 0.162391 3.139568 1673513897.338115
3.049053 0.162365 3.139608 1673513897.343225
3.048492 0.162339 3.139647 1673513897.348154
3.047924 0.162313 3.139687 1673513897.353137
3.047353 0.162287 3.139726 1673513897.358145
3.046786 0.162261 3.139765 1673513897.363128
3.046216 0.162235 3.139805 1673513897.368126
3.045644 0.162208 3.139844 1673513897.373150
3.045071 0.162182 3.139884 1673513897.378178
3.044497 0.162156 3.139924 1673513897.383215
3.043934 0.162130 3.139963 1673513897.388155
3.043368 0.162104 3.140002 1673513897.393127
3.042799 0.162078 3.140041 1673513897.398119
3.042232 0.162052 3.140080 1673513897.403096
3.041653 0.162025 3.140120 1673513897.408176
3.041087 0.161999 3.140160 1673513897.413143
3.040519 0.161973 3.140199 1673513897.418129
3.039935 0.161947 3.140239 1673513897.423254
3.040692 0.164244 3.139896 1673513897.430174
3.040391 0.164291 3.139909 1673513897.433181
3.039897 0.164367 3.139931 1673513897.438109
3.039398 0.164444 3.139952 1673513897.443085
3.038895 0.164522 3.139974 1673513897.448107
3.038391 0.164599 3.139996 1673513897.453134
3.037886 0.164677 3.140018 1673513897.458174
3.037393 0.164753 3.140040 1673513897.463084
3.036886 0.164832 3.140062 1673513897.468146
3.036383 0.164910 3.140083 1673513897.473165
3.035884 0.164987 3.140105 1673513897.478145
3.035379 0.165065 3.140127 1673513897.483180
3.034883 0.165141 3.140149 1673513897.488131
3.034378 0.165219 3.140171 1673513897.493168
3.033879 0.165296 3.140192 1673513897.498145
3.033378 0.165374 3.140214 1673513897.503146
3.032875 0.165451 3.140236 1673513897.508160
3.032373 0.165529 3.140258 1673513897.513178
3.031877 0.165605 3.140279 1673513897.518125
3.030194 0.164982 3.140723 1673513897.528418
3.030185 0.164982 3.140724 1673513897.528504
3.029695 0.165021 3.140761 1673513897.533120
3.029167 0.165063 3.140800 1673513897.538093
3.028624 0.165105 3.140841 1673513897.543208
3.028089 0.165148 3.140881 1673513897.548246
3.027559 0.165189 3.140921 1673513897.553246
3.027036 0.165231 3.140961 1673513897.558172
3.026512 0.165272 3.141000 1673513897.563103
3.025976 0.165314 3.141040 1673513897.568158
3.025441 0.165356 3.141080 1673513897.573195
3.024907 0.165398 3.141121 1673513897.578227
3.024384 0.165440 3.141160 1673513897.583155
3.023856 0.165481 3.141200 1673513897.588131
3.023327 0.165523 3.141239 1673513897.593113
3.022790 0.165565 3.141280 1673513897.598172
3.022263 0.165607 3.141319 1673513897.603141
3.021733 0.165649 3.141359 1673513897.608133
3.021203 0.165690 3.141399 1673513897.613124
3.020674 0.165732 3.141439 1673513897.618110
3.020098 0.165777 3.141482 1673513897.623534
3.020897 0.165955 3.141377 1673513897.629575
3.020566 0.165989 3.141400 1673513897.633133
3.020099 0.166037 3.141433 1673513897.638146
3.019631 0.166085 3.141466 1673513897.643167
3.019167 0.166132 3.141499 1673513897.648157
3.018705 0.166179 3.141532 1673513897.653119
3.018238 0.166227 3.141565 1673513897.658134
3.017774 0.166275 -3.141588 1673513897.663113
3.017309 0.166322 -3.141555 1673513897.668113
3.016841 0.166370 -3.141522 1673513897.673141
3.016377 0.166417 -3.141489 1673513897.678126
3.015902 0.166466 -3.141455 1673513897.683220
3.015448 0.166512 -3.141423 1673513897.688100
3.014978 0.166560 -3.141390 1673513897.693147
3.014515 0.166608 -3.141357 1673513897.698124
3.014049 0.166655 -3.141324 1673513897.703123
3.013586 0.166703 -3.141292 1673513897.708104
3.013118 0.166751 -3.141258 1673513897.713123
3.012652 0.166798 -3.141225 1673513897.718134
3.012154 0.166849 -3.141190 1673513897.723476
3.011932 0.165559 -3.141417 1673513897.728439
3.011506 0.165546 -3.141398 1673513897.733127
3.011054 0.165532 -3.141377 1673513897.738101
3.010589 0.165518 -3.141355 1673513897.743217
3.010142 0.165504 -3.141335 1673513897.748124
3.009689 0.165490 -3.141314 1673513897.753115
3.009230 0.165476 -3.141293 1673513897.758160
3.008682 0.165459 -3.141267 1673513897.764196
3.008326 0.165448 -3.141251 1673513897.768105
3.007870 0.165433 -3.141230 1673513897.773122
3.007413 0.165419 -3.141209 1673513897.778157
3.006963 0.165405 -3.141188 1673513897.783106
3.006508 0.165391 -3.141167 1673513897.788110
3.006052 0.165377 -3.141146 1673513897.793122
3.005595 0.165363 -3.141125 1673513897.798153
3.005142 0.165349 -3.141104 1673513897.803142
3.004688 0.165335 -3.141083 1673513897.808137
3.004235 0.165321 -3.141062 1673513897.813118
3.003779 0.165307 -3.141041 1673513897.818130
3.003287 0.165291 -3.141018 1673513897.823550
3.001820 0.164711 -3.140679 1673513897.833687
3.001729 0.164704 -3.140672 1673513897.834637
3.001395 0.164677 -3.140649 1673513897.838119
3.000914 0.164639 -3.140614 1673513897.843147
3.000437 0.164600 -3.140580 1673513897.848135
2.999951 0.164561 -3.140546 1673513897.853205
2.999481 0.164523 -3.140512 1673513897.858114
2.998981 0.164483 -3.140476 1673513897.863341
2.998523 0.164446 -3.140444 1673513897.868129
2.998046 0.164408 -3.140410 1673513897.873107
2.997560 0.164369 -3.140375 1673513897.878180
2.997086 0.164330 -3.140341 1673513897.883135
2.996603 0.164292 -3.140307 1673513897.888176
2.996127 0.164253 -3.140273 1673513897.893156
2.995650 0.164215 -3.140239 1673513897.898140
2.995166 0.164176 -3.140204 1673513897.903188
2.994692 0.164138 -3.140170 1673513897.908140
2.994215 0.164099 -3.140136 1673513897.913126
2.993734 0.164061 -3.140102 1673513897.918147
2.993255 0.164022 -3.140068 1673513897.923148
2.991588 0.165836 -3.140516 1673513897.939082
2.991580 0.165837 -3.140516 1673513897.939163
2.991089 0.165881 -3.140505 1673513897.944227
2.990553 0.165930 -3.140494 1673513897.949756
2.990121 0.165969 -3.140485 1673513897.954218
2.989565 0.166020 -3.140473 1673513897.959950
2.989152 0.166057 -3.140464 1673513897.964208
2.988666 0.166101 -3.140453 1673513897.969228
2.988180 0.166145 -3.140443 1673513897.974235
2.987686 0.166190 -3.140432 1673513897.979338
2.987212 0.166233 -3.140422 1673513897.984221
2.986729 0.166277 -3.140412 1673513897.989210
2.986239 0.166322 -3.140401 1673513897.994261
2.985758 0.166365 -3.140391 1673513897.999223
2.985273 0.166409 -3.140381 1673513898.004220
2.984791 0.166453 -3.140370 1673513898.009199
2.984304 0.166497 -3.140360 1673513898.014224
2.983820 0.166541 -3.140349 1673513898.019214
2.983329 0.166586 -3.140339 1673513898.024282
2.984120 0.165493 -3.140346 1673513898.034078
2.983604 0.165482 -3.140335 1673513898.040415
2.983571 0.165481 -3.140334 1673513898.040827
2.983294 0.165475 -3.140328 1673513898.044228
2.982888 0.165467 -3.140319 1673513898.049221
2.982478 0.165458 -3.140309 1673513898.054262
2.982071 0.165449 -3.140300 1673513898.059269
2.981668 0.165440 -3.140291 1673513898.064223
2.981260 0.165431 -3.140282 1673513898.069241
2.980854 0.165422 -3.140273 1673513898.074235
2.980445 0.165413 -3.140263 1673513898.079264
2.980040 0.165404 -3.140254 1673513898.084249
2.979634 0.165396 -3.140245 1673513898.089234
2.979226 0.165387 -3.140236 1673513898.094254
2.978822 0.165378 -3.140227 1673513898.099218
2.978413 0.165369 -3.140218 1673513898.104257
2.978008 0.165360 -3.140209 1673513898.109233
2.977601 0.165351 -3.140199 1673513898.114232
2.977194 0.165342 -3.140190 1673513898.119236
2.976786 0.165333 -3.140181 1673513898.124255
2.976358 0.165324 -3.140171 1673513898.129523
2.976156 0.164441 -3.139704 1673513898.134932
2.975815 0.164400 -3.139678 1673513898.139237
2.975421 0.164352 -3.139649 1673513898.144214
2.975022 0.164303 -3.139619 1673513898.149255
2.974623 0.164255 -3.139589 1673513898.154294
2.974233 0.164207 -3.139560 1673513898.159219
2.973835 0.164159 -3.139530 1673513898.164237
2.973441 0.164111 -3.139500 1673513898.169212
2.973046 0.164063 -3.139471 1673513898.174211
2.972646 0.164015 -3.139441 1673513898.179255
2.972236 0.163965 -3.139410 1673513898.184431
2.971852 0.163919 -3.139381 1673513898.189281
2.971461 0.163871 -3.139352 1673513898.194216
2.971061 0.163823 -3.139322 1673513898.199273
2.970668 0.163775 -3.139292 1673513898.204241
2.970270 0.163726 -3.139262 1673513898.209265
2.969874 0.163678 -3.139233 1673513898.214262
2.969461 0.163628 -3.139202 1673513898.219474
2.969082 0.163582 -3.139173 1673513898.224261
2.968291 0.163362 -3.139230 1673513898.232145
2.968125 0.163340 -3.139220 1673513898.234205
2.967717 0.163284 -3.139195 1673513898.239263
2.967313 0.163229 -3.139170 1673513898.244266
2.966877 0.163170 -3.139143 1673513898.249671
2.966508 0.163120 -3.139120 1673513898.254239
2.966099 0.163065 -3.139095 1673513898.259296
2.965698 0.163010 -3.139070 1673513898.264264
2.965296 0.162956 -3.139045 1673513898.269248
2.964890 0.162901 -3.139020 1673513898.274282
2.964480 0.162845 -3.138995 1673513898.279355
2.964085 0.162792 -3.138971 1673513898.284246
2.963682 0.162737 -3.138946 1673513898.289238
2.963276 0.162682 -3.138921 1673513898.294273
2.962873 0.162627 -3.138896 1673513898.299264
2.962470 0.162572 -3.138871 1673513898.304257
2.962056 0.162516 -3.138845 1673513898.309380
2.961661 0.162463 -3.138821 1673513898.314276
2.961262 0.162409 -3.138797 1673513898.319216
2.960857 0.162354 -3.138772 1673513898.324233
2.958486 0.164446 -3.139387 1673513898.334973
2.958480 0.164446 -3.139387 1673513898.335041
2.958084 0.164485 -3.139391 1673513898.339236
2.957613 0.164530 -3.139397 1673513898.344222
2.957140 0.164576 -3.139402 1673513898.349230
2.956668 0.164622 -3.139408 1673513898.354232
2.956192 0.164668 -3.139414 1673513898.359270
2.955722 0.164714 -3.139419 1673513898.364245
2.955249 0.164760 -3.139425 1673513898.369254
2.954780 0.164806 -3.139430 1673513898.374229
2.954305 0.164852 -3.139436 1673513898.379252
2.953835 0.164897 -3.139441 1673513898.384228
2.953362 0.164944 -3.139447 1673513898.389245
2.952890 0.164989 -3.139453 1673513898.394240
2.952415 0.165036 -3.139458 1673513898.399275
2.951946 0.165081 -3.139464 1673513898.404240
2.951474 0.165127 -3.139469 1673513898.409240
2.950998 0.165173 -3.139475 1673513898.414277
2.950530 0.165219 -3.139480 1673513898.419230
2.950059 0.165264 -3.139486 1673513898.424216
2.949575 0.165312 -3.139492 1673513898.429345
2.947015 0.163620 -3.138944 1673513898.438804
2.946973 0.163617 -3.138943 1673513898.439189
2.946426 0.163584 -3.138924 1673513898.444199
2.945856 0.163550 -3.138904 1673513898.449417
2.945332 0.163518 -3.138885 1673513898.454209
2.944789 0.163486 -3.138866 1673513898.459186
2.944238 0.163452 -3.138847 1673513898.464234
2.943691 0.163419 -3.138828 1673513898.469240
2.943143 0.163386 -3.138808 1673513898.474253
2.942599 0.163354 -3.138789 1673513898.479233
2.942048 0.163320 -3.138770 1673513898.484286
2.941510 0.163288 -3.138751 1673513898.489205
2.940961 0.163255 -3.138732 1673513898.494240
2.940414 0.163222 -3.138713 1673513898.499245
2.939866 0.163189 -3.138693 1673513898.504258
2.939321 0.163156 -3.138674 1673513898.509252
2.938778 0.163123 -3.138655 1673513898.514221
2.938234 0.163090 -3.138636 1673513898.519203
2.937687 0.163057 -3.138617 1673513898.524216
2.937141 0.163024 -3.138598 1673513898.529216
2.935872 0.163461 -3.139159 1673513898.540071
2.935854 0.163460 -3.139159 1673513898.540236
2.935415 0.163452 -3.139165 1673513898.544228
2.934857 0.163441 -3.139173 1673513898.549303
2.934319 0.163431 -3.139180 1673513898.554200
2.933768 0.163421 -3.139188 1673513898.559207
2.933214 0.163410 -3.139195 1673513898.564252
2.932666 0.163400 -3.139203 1673513898.569238
2.932116 0.163389 -3.139210 1673513898.574237
2.931570 0.163379 -3.139218 1673513898.579203
2.931001 0.163368 -3.139226 1673513898.584382
2.930466 0.163358 -3.139233 1673513898.589248
2.929912 0.163347 -3.139240 1673513898.594280
2.929359 0.163336 -3.139248 1673513898.599309
2.928817 0.163326 -3.139255 1673513898.604241
2.928257 0.163315 -3.139263 1673513898.609333
2.927717 0.163305 -3.139270 1673513898.614249
2.927171 0.163295 -3.139278 1673513898.619216
2.926620 0.163284 -3.139285 1673513898.624227
2.926072 0.163274 -3.139293 1673513898.629211
2.923894 0.163969 -3.139599 1673513898.643030
2.923845 0.163970 -3.139601 1673513898.643448
2.923760 0.163973 -3.139604 1673513898.644187
2.923174 0.163995 -3.139624 1673513898.649252
2.922595 0.164016 -3.139644 1673513898.654257
2.921995 0.164037 -3.139664 1673513898.659447
2.921440 0.164057 -3.139683 1673513898.664240
2.920834 0.164079 -3.139704 1673513898.669479
2.920281 0.164099 -3.139723 1673513898.674259
2.919701 0.164120 -3.139743 1673513898.679276
2.919126 0.164141 -3.139763 1673513898.684251
2.918551 0.164162 -3.139783 1673513898.689223
2.917970 0.164183 -3.139803 1673513898.694247
2.917359 0.164205 -3.139824 1673513898.699523
2.916817 0.164225 -3.139842 1673513898.704214
