5.638651 0.227624 -0.071810 1673516784.220350
5.639132 0.227559 -0.071765 1673516784.225331
5.639614 0.227493 -0.071720 1673516784.230330
5.640101 0.227427 -0.071675 1673516784.235368
5.640583 0.227362 -0.071630 1673516784.240360
5.641065 0.227296 -0.071586 1673516784.245344
5.641552 0.227230 -0.071540 1673516784.250394
5.642036 0.227164 -0.071496 1673516784.255396
5.642516 0.227099 -0.071451 1673516784.260366
5.642997 0.227034 -0.071406 1673516784.265351
5.643482 0.226968 -0.071361 1673516784.270366
5.643964 0.226903 -0.071317 1673516784.275363
5.644445 0.226837 -0.071272 1673516784.280344
5.644926 0.226772 -0.071227 1673516784.285321
5.645411 0.226706 -0.071182 1673516784.290345
5.645896 0.226640 -0.071137 1673516784.295363
5.646378 0.226575 -0.071093 1673516784.300352
5.646859 0.226510 -0.071048 1673516784.305337
5.647382 0.226439 -0.070999 1673516784.310747
5.649603 0.227051 -0.070745 1673516784.316085
5.650078 0.227022 -0.070699 1673516784.320318
5.650640 0.226987 -0.070645 1673516784.325332
5.651200 0.226953 -0.070591 1673516784.330326
5.651766 0.226918 -0.070536 1673516784.335369
5.652324 0.226884 -0.070482 1673516784.340352
5.652883 0.226849 -0.070428 1673516784.345338
5.653443 0.226815 -0.070374 1673516784.350328
5.654005 0.226780 -0.070320 1673516784.355337
5.654570 0.226745 -0.070265 1673516784.360377
5.655134 0.226711 -0.070210 1673516784.365406
5.655688 0.226677 -0.070157 1673516784.370346
5.656246 0.226642 -0.070103 1673516784.375324
5.656811 0.226608 -0.070048 1673516784.380368
5.657373 0.226573 -0.069994 1673516784.385376
5.657929 0.226539 -0.069940 1673516784.390339
5.658488 0.226504 -0.069886 1673516784.395323
5.659054 0.226470 -0.069831 1673516784.400371
5.659610 0.226435 -0.069778 1673516784.405329
5.660170 0.226401 -0.069723 1673516784.410325
5.660847 0.226158 -0.070318 1673516784.417201
5.661199 0.226131 -0.070303 1673516784.420359
5.661756 0.226087 -0.070279 1673516784.425370
5.662312 0.226044 -0.070255 1673516784.430362
5.662876 0.226000 -0.070231 1673516784.435436
5.663428 0.225957 -0.070207 1673516784.440397
5.663979 0.225914 -0.070184 1673516784.445349
5.664533 0.225871 -0.070160 1673516784.450327
5.665091 0.225827 -0.070136 1673516784.455336
5.665647 0.225784 -0.070112 1673516784.460337
5.666205 0.225741 -0.070088 1673516784.465350
5.666759 0.225697 -0.070065 1673516784.470329
5.667315 0.225654 -0.070041 1673516784.475328
5.667876 0.225610 -0.070017 1673516784.480371
5.668431 0.225567 -0.069993 1673516784.485359
5.668990 0.225524 -0.069969 1673516784.490384
5.669542 0.225481 -0.069945 1673516784.495345
5.670099 0.225437 -0.069922 1673516784.500345
5.670656 0.225394 -0.069898 1673516784.505355
5.671208 0.225351 -0.069874 1673516784.510315
5.671837 0.225555 -0.070068 1673516784.519348
5.671942 0.225549 -0.070065 1673516784.520321
5.672484 0.225518 -0.070052 1673516784.525342
5.673024 0.225488 -0.070039 1673516784.530344
5.673568 0.225457 -0.070025 1673516784.535390
5.674103 0.225426 -0.070012 1673516784.540349
5.674645 0.225396 -0.069999 1673516784.545373
5.675184 0.225365 -0.069986 1673516784.550371
5.675722 0.225334 -0.069973 1673516784.555355
5.676262 0.225304 -0.069960 1673516784.560355
5.676801 0.225273 -0.069946 1673516784.565356
5.677337 0.225243 -0.069933 1673516784.570325
5.677880 0.225212 -0.069920 1673516784.575357
5.678420 0.225181 -0.069907 1673516784.580358
5.678961 0.225150 -0.069894 1673516784.585378
5.679498 0.225120 -0.069880 1673516784.590352
5.680040 0.225089 -0.069867 1673516784.595372
5.680580 0.225058 -0.069854 1673516784.600382
5.681117 0.225028 -0.069841 1673516784.605356
5.681658 0.224997 -0.069828 1673516784.610369
5.682113 0.225572 -0.069883 1673516784.622292
5.682121 0.225572 -0.069882 1673516784.622374
5.682422 0.225571 -0.069877 1673516784.625369
5.682921 0.225569 -0.069868 1673516784.630331
5.683422 0.225566 -0.069858 1673516784.635314
5.683928 0.225564 -0.069849 1673516784.640348
5.684432 0.225562 -0.069839 1673516784.645359
5.684937 0.225560 -0.069830 1673516784.650381
5.685437 0.225558 -0.069821 1673516784.655354
5.685938 0.225556 -0.069811 1673516784.660334
5.686443 0.225554 -0.069802 1673516784.665356
5.686946 0.225552 -0.069792 1673516784.670354
5.687448 0.225550 -0.069783 1673516784.675349
5.687951 0.225548 -0.069774 1673516784.680349
5.688455 0.225546 -0.069764 1673516784.685363
5.688960 0.225543 -0.069755 1673516784.690387
5.689459 0.225541 -0.069746 1673516784.695345
5.689961 0.225539 -0.069736 1673516784.700334
5.690469 0.225537 -0.069727 1673516784.705388
5.690968 0.225535 -0.069717 1673516784.710354
5.691492 0.225839 -0.069129 1673516784.725602
5.691497 0.225840 -0.069129 1673516784.725652
5.691964 0.225851 -0.069095 1673516784.730734
5.692433 0.225863 -0.069061 1673516784.735839
5.692884 0.225874 -0.069028 1673516784.740756
5.693348 0.225885 -0.068994 1673516784.745802
5.693807 0.225896 -0.068960 1673516784.750802
5.694260 0.225908 -0.068927 1673516784.755738
5.694717 0.225919 -0.068894 1673516784.760712
5.695179 0.225930 -0.068860 1673516784.765737
5.695641 0.225942 -0.068826 1673516784.770773
5.696098 0.225953 -0.068793 1673516784.775743
5.696558 0.225964 -0.068759 1673516784.780747
5.697022 0.225976 -0.068726 1673516784.785801
5.697481 0.225987 -0.068692 1673516784.790804
5.698163 0.226004 -0.068642 1673516784.798221
5.698394 0.226010 -0.068625 1673516784.800739
5.698856 0.226021 -0.068592 1673516784.805770
5.699311 0.226032 -0.068558 1673516784.810729
5.700003 0.225162 -0.068403 1673516784.823343
5.700014 0.225161 -0.068402 1673516784.823462
5.700211 0.225148 -0.068386 1673516784.825713
5.700651 0.225120 -0.068349 1673516784.830722
5.701089 0.225091 -0.068312 1673516784.835724
5.701531 0.225062 -0.068275 1673516784.840761
5.701971 0.225033 -0.068239 1673516784.845779
5.702408 0.225005 -0.068202 1673516784.850756
5.702845 0.224977 -0.068166 1673516784.855745
5.703285 0.224948 -0.068129 1673516784.860761
5.703725 0.224919 -0.068092 1673516784.865769
5.704161 0.224891 -0.068055 1673516784.870750
5.704601 0.224862 -0.068019 1673516784.875767
5.705812 0.224783 -0.067918 1673516784.889565
5.705846 0.224781 -0.067915 1673516784.889956
5.705914 0.224777 -0.067909 1673516784.890735
5.706354 0.224748 -0.067872 1673516784.895754
5.706792 0.224719 -0.067836 1673516784.900747
5.707230 0.224691 -0.067799 1673516784.905739
5.707672 0.224662 -0.067762 1673516784.910770
5.708277 0.224623 -0.067711 1673516784.917668
5.709855 0.224447 -0.068086 1673516784.922669
5.710155 0.224425 -0.068075 1673516784.925733
5.710645 0.224390 -0.068056 1673516784.930737
5.711138 0.224355 -0.068038 1673516784.935769
5.711624 0.224320 -0.068020 1673516784.940726
5.712114 0.224285 -0.068002 1673516784.945730
5.712603 0.224250 -0.067984 1673516784.950723
5.713092 0.224214 -0.067966 1673516784.955717
5.713584 0.224179 -0.067947 1673516784.960734
5.714079 0.224144 -0.067929 1673516784.965786
5.714563 0.224109 -0.067911 1673516784.970726
5.715055 0.224073 -0.067893 1673516784.975752
5.715544 0.224038 -0.067874 1673516784.980749
5.716033 0.224003 -0.067856 1673516784.985735
5.716521 0.223968 -0.067838 1673516784.990716
5.717014 0.223933 -0.067820 1673516784.995747
5.717503 0.223898 -0.067802 1673516785.000738
5.718145 0.223852 -0.067778 1673516785.007298
5.718481 0.223827 -0.067765 1673516785.010729
5.718998 0.223790 -0.067746 1673516785.016003
5.720960 0.224229 -0.067923 1673516785.022389
5.721333 0.224220 -0.067917 1673516785.025780
5.721887 0.224207 -0.067907 1673516785.030809
5.722429 0.224194 -0.067898 1673516785.035732
5.722983 0.224180 -0.067889 1673516785.040768
5.723533 0.224167 -0.067880 1673516785.045758
5.724080 0.224154 -0.067871 1673516785.050726
5.724634 0.224141 -0.067862 1673516785.055763
5.725183 0.224127 -0.067853 1673516785.060750
5.725732 0.224114 -0.067844 1673516785.065732
5.726287 0.224101 -0.067834 1673516785.070777
5.726835 0.224088 -0.067825 1673516785.075755
5.727391 0.224074 -0.067816 1673516785.080802
5.727937 0.224061 -0.067807 1673516785.085760
5.728488 0.224048 -0.067798 1673516785.090765
5.729037 0.224035 -0.067789 1673516785.095750
5.729588 0.224022 -0.067780 1673516785.100759
5.730146 0.224008 -0.067771 1673516785.105830
5.730687 0.223995 -0.067762 1673516785.110744
5.731236 0.223982 -0.067752 1673516785.115730
5.730516 0.223683 -0.067721 1673516785.122370
5.730842 0.223665 -0.067714 1673516785.125734
5.731329 0.223639 -0.067704 1673516785.130765
5.731814 0.223613 -0.067694 1673516785.135774
5.732295 0.223587 -0.067684 1673516785.140745
5.732785 0.223561 -0.067674 1673516785.145799
5.733264 0.223535 -0.067664 1673516785.150753
5.733749 0.223509 -0.067654 1673516785.155759
5.734233 0.223482 -0.067644 1673516785.160764
5.734717 0.223456 -0.067634 1673516785.165759
5.735200 0.223430 -0.067624 1673516785.170754
5.735686 0.223404 -0.067614 1673516785.175768
5.736172 0.223378 -0.067604 1673516785.180790
5.736654 0.223352 -0.067594 1673516785.185766
5.737139 0.223326 -0.067583 1673516785.190780
5.737620 0.223300 -0.067574 1673516785.195744
5.738106 0.223274 -0.067563 1673516785.200771
5.738593 0.223247 -0.067553 1673516785.205795
5.739076 0.223221 -0.067543 1673516785.210789
5.739556 0.223195 -0.067533 1673516785.215741
5.740888 0.222267 -0.067481 1673516785.227081
5.740899 0.222265 -0.067481 1673516785.227192
5.741250 0.222220 -0.067473 1673516785.230736
5.741743 0.222155 -0.067462 1673516785.235726
5.742240 0.222090 -0.067450 1673516785.240753
5.742735 0.222026 -0.067439 1673516785.245757
5.743232 0.221961 -0.067428 1673516785.250787
5.743722 0.221897 -0.067416 1673516785.255736
5.744216 0.221832 -0.067405 1673516785.260732
5.744717 0.221767 -0.067394 1673516785.265802
5.745209 0.221703 -0.067382 1673516785.270774
5.745697 0.221639 -0.067371 1673516785.275714
5.746198 0.221574 -0.067360 1673516785.280779
5.746691 0.221509 -0.067349 1673516785.285760
5.747187 0.221444 -0.067337 1673516785.290778
5.747678 0.221380 -0.067326 1673516785.295742
5.748176 0.221315 -0.067315 1673516785.300778
5.748671 0.221251 -0.067303 1673516785.305782
5.749167 0.221186 -0.067292 1673516785.310802
5.749658 0.221122 -0.067281 1673516785.315768
5.750176 0.221054 -0.067269 1673516785.321007
5.748805 0.220614 -0.066867 1673516785.327511
5.749067 0.220562 -0.066849 1673516785.330747
5.749478 0.220480 -0.066820 1673516785.335819
5.749878 0.220401 -0.066792 1673516785.340749
5.750281 0.220321 -0.066764 1673516785.345731
5.750693 0.220239 -0.066735 1673516785.350810
5.751092 0.220160 -0.066707 1673516785.355744
5.751499 0.220079 -0.066678 1673516785.360769
5.751902 0.219999 -0.066650 1673516785.365734
5.752307 0.219919 -0.066621 1673516785.370734
5.752713 0.219838 -0.066593 1673516785.375755
5.753119 0.219757 -0.066564 1673516785.380769
5.753525 0.219677 -0.066535 1673516785.385770
5.753932 0.219596 -0.066507 1673516785.390803
5.754332 0.219517 -0.066479 1673516785.395732
5.754741 0.219435 -0.066450 1673516785.400785
5.755145 0.219355 -0.066422 1673516785.405769
5.755548 0.219275 -0.066393 1673516785.410744
5.755954 0.219195 -0.066365 1673516785.415759
5.757450 0.220521 -0.066551 1673516785.429682
5.757463 0.220521 -0.066551 1673516785.429843
5.757537 0.220519 -0.066548 1673516785.430711
5.757964 0.220506 -0.066531 1673516785.435785
5.758383 0.220494 -0.066514 1673516785.440760
5.758807 0.220482 -0.066497 1673516785.445788
5.759226 0.220469 -0.066480 1673516785.450765
5.759650 0.220457 -0.066463 1673516785.455802
5.760069 0.220444 -0.066446 1673516785.460777
5.760488 0.220432 -0.066430 1673516785.465752
5.760913 0.220420 -0.066413 1673516785.470797
5.761331 0.220407 -0.066396 1673516785.475761
5.761758 0.220395 -0.066379 1673516785.480821
5.762176 0.220383 -0.066362 1673516785.485783
5.762593 0.220370 -0.066346 1673516785.490741
5.763012 0.220358 -0.066329 1673516785.495711
5.763436 0.220346 -0.066312 1673516785.500750
5.763860 0.220333 -0.066295 1673516785.505778
5.764283 0.220321 -0.066278 1673516785.510797
5.764700 0.220309 -0.066261 1673516785.515757
5.765123 0.220296 -0.066245 1673516785.520776
5.767512 0.220825 -0.066329 1673516785.528168
5.767765 0.220831 -0.066323 1673516785.530704
5.768269 0.220844 -0.066311 1673516785.535737
5.768769 0.220856 -0.066299 1673516785.540729
5.769271 0.220868 -0.066287 1673516785.545754
5.769772 0.220880 -0.066275 1673516785.550754
5.770272 0.220892 -0.066263 1673516785.555759
5.770769 0.220904 -0.066251 1673516785.560716
5.771273 0.220917 -0.066239 1673516785.565754
5.771773 0.220929 -0.066227 1673516785.570750
5.772272 0.220941 -0.066216 1673516785.575741
5.772773 0.220953 -0.066204 1673516785.580752
5.773273 0.220965 -0.066192 1673516785.585746
5.773773 0.220977 -0.066180 1673516785.590746
5.774272 0.220990 -0.066168 1673516785.595733
5.774774 0.221002 -0.066156 1673516785.600744
5.775275 0.221014 -0.066144 1673516785.605750
5.775774 0.221026 -0.066132 1673516785.610737
5.776294 0.221039 -0.066120 1673516785.615932
5.776777 0.221051 -0.066108 1673516785.620766
5.778533 0.220848 -0.066163 1673516785.626253
5.779029 0.220850 -0.066155 1673516785.630714
5.779587 0.220852 -0.066146 1673516785.635731
5.780142 0.220854 -0.066137 1673516785.640723
5.780706 0.220857 -0.066128 1673516785.645797
5.781255 0.220859 -0.066119 1673516785.650736
5.781815 0.220861 -0.066110 1673516785.655779
5.782366 0.220863 -0.066102 1673516785.660733
5.782924 0.220865 -0.066093 1673516785.665754
5.783482 0.220868 -0.066084 1673516785.670778
5.784034 0.220870 -0.066075 1673516785.675740
5.784594 0.220872 -0.066066 1673516785.680777
5.785148 0.220874 -0.066058 1673516785.685764
5.785703 0.220877 -0.066049 1673516785.690753
5.786256 0.220879 -0.066040 1673516785.695732
5.786826 0.220881 -0.066031 1673516785.700855
5.787369 0.220883 -0.066022 1673516785.705741
5.787930 0.220886 -0.066013 1673516785.710787
5.788480 0.220888 -0.066005 1673516785.715738
5.789038 0.220890 -0.065996 1673516785.720753
5.790084 0.220447 -0.066033 1673516785.728211
5.790368 0.220437 -0.066030 1673516785.730726
5.790936 0.220419 -0.066023 1673516785.735749
5.791502 0.220401 -0.066017 1673516785.740747
5.792077 0.220383 -0.066010 1673516785.745833
5.792635 0.220365 -0.066004 1673516785.750762
5.793194 0.220347 -0.065997 1673516785.755708
5.793765 0.220329 -0.065991 1673516785.760751
5.794336 0.220311 -0.065984 1673516785.765800
5.794896 0.220293 -0.065978 1673516785.770753
5.795465 0.220274 -0.065971 1673516785.775779
5.796033 0.220256 -0.065964 1673516785.780796
5.796601 0.220238 -0.065958 1673516785.785817
5.797159 0.220220 -0.065952 1673516785.790750
5.797722 0.220202 -0.065945 1673516785.795732
5.798298 0.220184 -0.065938 1673516785.800820
5.798857 0.220166 -0.065932 1673516785.805764
5.799421 0.220148 -0.065925 1673516785.810744
5.799991 0.220130 -0.065919 1673516785.815789
5.800553 0.220112 -0.065912 1673516785.820752
5.800468 0.220309 -0.066164 1673516785.831088
5.800478 0.220308 -0.066164 1673516785.831188
5.800943 0.220301 -0.066169 1673516785.835753
5.801450 0.220294 -0.066174 1673516785.840721
5.801963 0.220286 -0.066179 1673516785.845763
5.802475 0.220279 -0.066184 1673516785.850783
5.802983 0.220271 -0.066190 1673516785.855762
5.803491 0.220263 -0.066195 1673516785.860748
5.804005 0.220256 -0.066200 1673516785.865795
5.804512 0.220248 -0.066206 1673516785.870770
5.805020 0.220240 -0.066211 1673516785.875755
5.805527 0.220233 -0.066216 1673516785.880723
5.806040 0.220225 -0.066222 1673516785.885761
5.806550 0.220218 -0.066227 1673516785.890760
5.807060 0.220210 -0.066232 1673516785.895771
5.807571 0.220202 -0.066237 1673516785.900784
5.808078 0.220195 -0.066243 1673516785.905753
5.808585 0.220187 -0.066248 1673516785.910724
5.809096 0.220179 -0.066253 1673516785.915743
5.809610 0.220172 -0.066259 1673516785.920783
5.810620 0.219988 -0.066457 1673516785.931854
5.810626 0.219988 -0.066458 1673516785.931913
5.811011 0.219977 -0.066468 1673516785.935729
5.811519 0.219961 -0.066482 1673516785.940764
5.812021 0.219946 -0.066495 1673516785.945747
5.812520 0.219932 -0.066509 1673516785.950695
5.813033 0.219916 -0.066523 1673516785.955784
5.813535 0.219901 -0.066537 1673516785.960754
5.814039 0.219886 -0.066550 1673516785.965753
5.814542 0.219871 -0.066564 1673516785.970742
5.815046 0.219856 -0.066578 1673516785.975736
5.815550 0.219841 -0.066591 1673516785.980736
5.816055 0.219826 -0.066605 1673516785.985741
5.816559 0.219811 -0.066619 1673516785.990736
5.817067 0.219795 -0.066632 1673516785.995772
5.817570 0.219780 -0.066646 1673516786.000766
5.818075 0.219765 -0.066660 1673516786.005765
5.818574 0.219750 -0.066673 1673516786.010712
5.819083 0.219735 -0.066687 1673516786.015765
5.819587 0.219720 -0.066701 1673516786.020758
5.820108 0.219704 -0.066715 1673516786.025927
5.821027 0.219380 -0.067179 1673516786.034366
5.821166 0.219372 -0.067188 1673516786.035742
5.821675 0.219344 -0.067221 1673516786.040754
5.822185 0.219315 -0.067255 1673516786.045784
5.822691 0.219287 -0.067288 1673516786.050764
5.823197 0.219259 -0.067321 1673516786.055753
5.823703 0.219231 -0.067354 1673516786.060747
5.824217 0.219202 -0.067387 1673516786.065811
5.824716 0.219174 -0.067420 1673516786.070725
5.825224 0.219146 -0.067453 1673516786.075733
5.825734 0.219117 -0.067486 1673516786.080762
5.826241 0.219089 -0.067520 1673516786.085762
5.826747 0.219061 -0.067553 1673516786.090750
5.827255 0.219033 -0.067586 1673516786.095751
5.827768 0.219004 -0.067619 1673516786.100807
5.828273 0.218976 -0.067652 1673516786.105792
5.828777 0.218948 -0.067685 1673516786.110757
5.829285 0.218919 -0.067718 1673516786.115760
5.829791 0.218891 -0.067751 1673516786.120751
5.830301 0.218863 -0.067785 1673516786.125775
5.829293 0.218372 -0.068301 1673516786.133569
5.829484 0.218350 -0.068325 1673516786.135795
5.829905 0.218303 -0.068378 1673516786.140728
5.830336 0.218254 -0.068433 1673516786.145776
5.830764 0.218206 -0.068487 1673516786.150796
5.831183 0.218158 -0.068540 1673516786.155696
5.831615 0.218110 -0.068594 1673516786.160761
5.832040 0.218061 -0.068648 1673516786.165742
5.832469 0.218013 -0.068702 1673516786.170763
5.832894 0.217965 -0.068756 1673516786.175743
5.833325 0.217916 -0.068810 1673516786.180789
5.833754 0.217868 -0.068865 1673516786.185815
5.834175 0.217820 -0.068918 1673516786.190749
5.834603 0.217772 -0.068972 1673516786.195762
5.835029 0.217724 -0.069026 1673516786.200754
5.835457 0.217675 -0.069080 1673516786.205767
5.835886 0.217627 -0.069134 1673516786.210786
5.836312 0.217579 -0.069188 1673516786.215778
5.836738 0.217530 -0.069241 1673516786.220768
5.837166 0.217482 -0.069295 1673516786.225775
5.837798 0.217694 -0.069413 1673516786.234496
5.837901 0.217686 -0.069427 1673516786.235727
5.838323 0.217651 -0.069482 1673516786.240726
5.838751 0.217615 -0.069537 1673516786.245793
5.839169 0.217580 -0.069592 1673516786.250754
5.839593 0.217545 -0.069647 1673516786.255776
5.840017 0.217510 -0.069702 1673516786.260809
5.840433 0.217475 -0.069757 1673516786.265737
5.840855 0.217440 -0.069812 1673516786.270734
5.841276 0.217405 -0.069866 1673516786.275731
5.841699 0.217370 -0.069922 1673516786.280744
5.842127 0.217335 -0.069977 1673516786.285809
5.842541 0.217301 -0.070031 1673516786.290718
5.842964 0.217265 -0.070086 1673516786.295738
5.843386 0.217230 -0.070141 1673516786.300737
5.843809 0.217195 -0.070196 1673516786.305748
5.844231 0.217160 -0.070251 1673516786.310746
5.844656 0.217125 -0.070307 1673516786.315782
5.845080 0.217090 -0.070362 1673516786.320810
5.845495 0.217055 -0.070416 1673516786.325736
5.846379 0.216980 -0.069838 1673516786.331954
5.846711 0.216952 -0.069857 1673516786.335739
5.847152 0.216915 -0.069883 1673516786.340775
5.847591 0.216879 -0.069908 1673516786.345783
5.848030 0.216842 -0.069933 1673516786.350786
5.848467 0.216806 -0.069958 1673516786.355774
5.848902 0.216769 -0.069983 1673516786.360736
5.849340 0.216733 -0.070008 1673516786.365723
5.849781 0.216696 -0.070034 1673516786.370756
5.850217 0.216660 -0.070059 1673516786.375734
5.850658 0.216623 -0.070084 1673516786.380760
5.851097 0.216587 -0.070109 1673516786.385761
5.851534 0.216550 -0.070135 1673516786.390754
5.851972 0.216514 -0.070160 1673516786.395741
5.852410 0.216477 -0.070185 1673516786.400742
5.852847 0.216441 -0.070210 1673516786.405727
5.853288 0.216404 -0.070235 1673516786.410756
5.853729 0.216368 -0.070261 1673516786.415779
5.854164 0.216331 -0.070286 1673516786.420746
5.854602 0.216295 -0.070311 1673516786.425747
5.855969 0.217397 -0.070158 1673516786.435802
5.855977 0.217397 -0.070158 1673516786.435890
5.856425 0.217413 -0.070174 1673516786.440762
5.856882 0.217429 -0.070190 1673516786.445730
5.857348 0.217445 -0.070206 1673516786.450788
5.857801 0.217461 -0.070222 1673516786.455714
5.858262 0.217478 -0.070238 1673516786.460726
5.858727 0.217494 -0.070254 1673516786.465772
5.859186 0.217510 -0.070270 1673516786.470771
5.859644 0.217526 -0.070286 1673516786.475746
5.860106 0.217543 -0.070302 1673516786.480762
5.860568 0.217559 -0.070318 1673516786.485778
5.861025 0.217575 -0.070334 1673516786.490754
5.861482 0.217591 -0.070350 1673516786.495714
5.861946 0.217607 -0.070366 1673516786.500753
5.862406 0.217624 -0.070382 1673516786.505755
5.862867 0.217640 -0.070399 1673516786.510762
5.863329 0.217656 -0.070415 1673516786.515791
5.863791 0.217672 -0.070431 1673516786.520801
5.864247 0.217689 -0.070447 1673516786.525767
5.866202 0.217241 -0.070709 1673516786.537169
5.866217 0.217240 -0.070709 1673516786.537321
5.866561 0.217237 -0.070727 1673516786.540752
5.867065 0.217231 -0.070754 1673516786.545784
5.867562 0.217226 -0.070780 1673516786.550755
5.868062 0.217220 -0.070806 1673516786.555743
5.868563 0.217215 -0.070832 1673516786.560755
5.869063 0.217210 -0.070858 1673516786.565746
5.869563 0.217204 -0.070884 1673516786.570745
5.870075 0.217199 -0.070911 1673516786.575850
5.870565 0.217193 -0.070936 1673516786.580754
5.871066 0.217188 -0.070962 1673516786.585750
5.871567 0.217182 -0.070988 1673516786.590755
5.872067 0.217177 -0.071015 1673516786.595751
5.872566 0.217172 -0.071041 1673516786.600742
5.873068 0.217166 -0.071067 1673516786.605755
5.873570 0.217161 -0.071093 1673516786.610766
5.874074 0.217155 -0.071119 1673516786.615802
5.874570 0.217150 -0.071145 1673516786.620758
5.875073 0.217144 -0.071171 1673516786.625777
5.875579 0.217139 -0.071198 1673516786.630839
5.877682 0.215073 -0.071344 1673516786.637697
5.878025 0.215014 -0.071363 1673516786.640737
5.878592 0.214916 -0.071394 1673516786.645767
5.879160 0.214818 -0.071425 1673516786.650796
5.879716 0.214721 -0.071456 1673516786.655726
5.880286 0.214623 -0.071487 1673516786.660782
5.880850 0.214525 -0.071518 1673516786.665778
5.881412 0.214428 -0.071549 1673516786.670761
5.881976 0.214330 -0.071580 1673516786.675769
5.882535 0.214234 -0.071611 1673516786.680722
5.883104 0.214135 -0.071643 1673516786.685770
5.883671 0.214037 -0.071674 1673516786.690789
5.884237 0.213939 -0.071705 1673516786.695810
5.884792 0.213843 -0.071736 1673516786.700734
5.885359 0.213745 -0.071767 1673516786.705758
5.885927 0.213646 -0.071798 1673516786.710798
5.886490 0.213549 -0.071829 1673516786.715784
5.887050 0.213452 -0.071860 1673516786.720753
5.887620 0.213353 -0.071891 1673516786.725807
5.888179 0.213257 -0.071922 1673516786.730758
5.888409 0.214833 -0.071848 1673516786.739725
5.888519 0.214829 -0.071853 1673516786.740763
5.889048 0.214809 -0.071878 1673516786.745765
5.889574 0.214789 -0.071904 1673516786.750731
5.890102 0.214769 -0.071929 1673516786.755717
5.890633 0.214749 -0.071954 1673516786.760736
5.891164 0.214729 -0.071980 1673516786.765747
5.891691 0.214709 -0.072005 1673516786.770726
5.892222 0.214689 -0.072030 1673516786.775748
5.892750 0.214669 -0.072055 1673516786.780730
5.893284 0.214649 -0.072081 1673516786.785774
5.893810 0.214629 -0.072106 1673516786.790745
5.894339 0.214609 -0.072131 1673516786.795736
5.894872 0.214589 -0.072157 1673516786.800771
5.895401 0.214569 -0.072182 1673516786.805775
5.895931 0.214549 -0.072207 1673516786.810775
5.896454 0.214529 -0.072232 1673516786.815721
5.896989 0.214509 -0.072258 1673516786.820775
5.897519 0.214489 -0.072283 1673516786.825782
5.898048 0.214469 -0.072309 1673516786.830770
5.899917 0.214469 -0.072247 1673516786.842683
5.899928 0.214468 -0.072247 1673516786.842788
5.900256 0.214458 -0.072259 1673516786.845740
5.900812 0.214440 -0.072279 1673516786.850738
5.901365 0.214422 -0.072299 1673516786.855716
5.901926 0.214404 -0.072319 1673516786.860765
5.902480 0.214386 -0.072339 1673516786.865746
5.903042 0.214368 -0.072359 1673516786.870802
5.903593 0.214350 -0.072379 1673516786.875760
5.904151 0.214332 -0.072399 1673516786.880780
5.904712 0.214314 -0.072419 1673516786.885829
5.905260 0.214296 -0.072439 1673516786.890757
5.905821 0.214278 -0.072459 1673516786.895804
5.906368 0.214260 -0.072479 1673516786.900719
5.906924 0.214242 -0.072499 1673516786.905721
5.907481 0.214225 -0.072519 1673516786.910734
5.908035 0.214207 -0.072539 1673516786.915722
5.908597 0.214188 -0.072559 1673516786.920776
5.909150 0.214171 -0.072579 1673516786.925746
5.909723 0.214152 -0.072600 1673516786.930905
5.908565 0.214407 -0.072402 1673516786.939770
5.908654 0.214406 -0.072404 1673516786.940732
5.909118 0.214401 -0.072413 1673516786.945786
5.909574 0.214396 -0.072423 1673516786.950750
5.910035 0.214391 -0.072432 1673516786.955760
5.910492 0.214386 -0.072442 1673516786.960743
5.910953 0.214381 -0.072451 1673516786.965759
5.911411 0.214376 -0.072461 1673516786.970736
5.911871 0.214371 -0.072470 1673516786.975750
5.912327 0.214366 -0.072480 1673516786.980709
5.912794 0.214361 -0.072489 1673516786.985797
5.913253 0.214356 -0.072499 1673516786.990790
5.914319 0.214344 -0.072521 1673516787.002390
5.914330 0.214344 -0.072521 1673516787.002510
5.914628 0.214341 -0.072527 1673516787.005758
5.915084 0.214336 -0.072537 1673516787.010724
5.915546 0.214330 -0.072546 1673516787.015747
5.916005 0.214325 -0.072556 1673516787.020745
5.916465 0.214320 -0.072565 1673516787.025753
5.916928 0.214315 -0.072575 1673516787.030788
5.916492 0.214509 -0.072453 1673516787.038427
5.916679 0.214511 -0.072455 1673516787.040719
5.917086 0.214515 -0.072458 1673516787.045725
5.917499 0.214519 -0.072461 1673516787.050794
5.917904 0.214523 -0.072464 1673516787.055761
5.918308 0.214527 -0.072468 1673516787.060730
5.918715 0.214532 -0.072471 1673516787.065721
5.919127 0.214536 -0.072474 1673516787.070784
5.919533 0.214540 -0.072477 1673516787.075770
5.919940 0.214544 -0.072481 1673516787.080773
5.920348 0.214548 -0.072484 1673516787.085773
5.920756 0.214553 -0.072487 1673516787.090783
5.921163 0.214557 -0.072490 1673516787.095787
5.921570 0.214561 -0.072494 1673516787.100782
5.921977 0.214565 -0.072497 1673516787.105777
5.922381 0.214569 -0.072500 1673516787.110740
5.922789 0.214574 -0.072503 1673516787.115756
5.923196 0.214578 -0.072507 1673516787.120752
5.923611 0.214582 -0.072510 1673516787.125844
5.924009 0.214586 -0.072513 1673516787.130732
5.926056 0.214478 -0.072472 1673516787.140882
5.926064 0.214478 -0.072472 1673516787.140968
5.926507 0.214477 -0.072473 1673516787.145762
5.926969 0.214476 -0.072474 1673516787.150758
5.927431 0.214475 -0.072475 1673516787.155753
5.927891 0.214474 -0.072476 1673516787.160729
5.928354 0.214472 -0.072477 1673516787.165741
5.928817 0.214471 -0.072478 1673516787.170748
5.929278 0.214470 -0.072479 1673516787.175728
5.929741 0.214469 -0.072481 1673516787.180735
5.930207 0.214468 -0.072482 1673516787.185772
5.930669 0.214467 -0.072483 1673516787.190767
5.931130 0.214466 -0.072484 1673516787.195752
5.931593 0.214465 -0.072485 1673516787.200759
5.932059 0.214464 -0.072486 1673516787.205802
5.932519 0.214463 -0.072487 1673516787.210778
5.932997 0.214461 -0.072488 1673516787.215941
5.933445 0.214460 -0.072489 1673516787.220795
5.933908 0.214459 -0.072490 1673516787.225800
5.934365 0.214458 -0.072491 1673516787.230739
5.936895 0.215012 -0.072526 1673516787.243015
5.936909 0.215013 -0.072526 1673516787.243150
5.937177 0.215025 -0.072528 1673516787.245704
5.937711 0.215049 -0.072530 1673516787.250787
5.938229 0.215073 -0.072533 1673516787.255722
5.938752 0.215096 -0.072535 1673516787.260712
5.939284 0.215120 -0.072538 1673516787.265777
5.939808 0.215144 -0.072540 1673516787.270776
5.940333 0.215168 -0.072543 1673516787.275773
5.940855 0.215192 -0.072545 1673516787.280749
5.941383 0.215216 -0.072548 1673516787.285783
5.941909 0.215239 -0.072550 1673516787.290789
5.942433 0.215263 -0.072553 1673516787.295781
5.942956 0.215287 -0.072555 1673516787.300770
5.943485 0.215311 -0.072558 1673516787.305808
5.944006 0.215335 -0.072560 1673516787.310774
5.944531 0.215358 -0.072563 1673516787.315776
5.945053 0.215382 -0.072565 1673516787.320746
5.945580 0.215406 -0.072568 1673516787.325768
5.946107 0.215430 -0.072570 1673516787.330792
5.946625 0.215453 -0.072573 1673516787.335734
5.949003 0.214520 -0.072907 1673516787.342868
5.949347 0.214508 -0.072917 1673516787.345737
5.949953 0.214488 -0.072935 1673516787.350806
5.950541 0.214469 -0.072952 1673516787.355716
5.951141 0.214449 -0.072969 1673516787.360736
5.951741 0.214429 -0.072987 1673516787.365745
5.952342 0.214409 -0.073004 1673516787.370769
5.952936 0.214389 -0.073021 1673516787.375740
5.953539 0.214369 -0.073039 1673516787.380776
5.954127 0.214350 -0.073056 1673516787.385689
5.954732 0.214329 -0.073074 1673516787.390750
5.955329 0.214310 -0.073091 1673516787.395738
5.955931 0.214290 -0.073109 1673516787.400767
5.956549 0.214269 -0.073127 1673516787.405933
5.957127 0.214250 -0.073143 1673516787.410759
5.957734 0.214230 -0.073161 1673516787.415839
5.958318 0.214210 -0.073178 1673516787.420718
5.958921 0.214190 -0.073196 1673516787.425759
5.959519 0.214170 -0.073213 1673516787.430753
5.960124 0.214150 -0.073231 1673516787.435809
5.959658 0.213699 -0.072995 1673516787.442712
5.959985 0.213676 -0.072999 1673516787.445742
5.960526 0.213636 -0.073004 1673516787.450759
5.961060 0.213598 -0.073010 1673516787.455703
5.961604 0.213558 -0.073015 1673516787.460748
5.962149 0.213519 -0.073021 1673516787.465794
5.962685 0.213480 -0.073027 1673516787.470766
5.963223 0.213441 -0.073032 1673516787.475754
5.963768 0.213401 -0.073038 1673516787.480804
5.964298 0.213362 -0.073043 1673516787.485722
5.964842 0.213323 -0.073049 1673516787.490758
5.965379 0.213284 -0.073055 1673516787.495735
5.965920 0.213245 -0.073060 1673516787.500756
5.966461 0.213205 -0.073066 1673516787.505770
5.967003 0.213166 -0.073071 1673516787.510794
5.967535 0.213128 -0.073077 1673516787.515722
5.968076 0.213088 -0.073083 1673516787.520738
5.968619 0.213049 -0.073088 1673516787.525770
5.969157 0.213010 -0.073094 1673516787.530751
5.969698 0.212971 -0.073099 1673516787.535768
5.968982 0.212049 -0.073190 1673516787.545821
5.968988 0.212048 -0.073190 1673516787.545877
5.969438 0.211973 -0.073199 1673516787.550786
5.969890 0.211897 -0.073208 1673516787.555705
5.970354 0.211820 -0.073217 1673516787.560758
5.970813 0.211743 -0.073226 1673516787.565758
5.971271 0.211666 -0.073236 1673516787.570746
5.971733 0.211589 -0.073245 1673516787.575773
5.972191 0.211512 -0.073254 1673516787.580761
5.972653 0.211435 -0.073263 1673516787.585792
5.973112 0.211358 -0.073272 1673516787.590792
5.973568 0.211282 -0.073281 1673516787.595757
5.974033 0.211204 -0.073291 1673516787.600826
5.974487 0.211128 -0.073300 1673516787.605775
5.974948 0.211051 -0.073309 1673516787.610788
5.975402 0.210975 -0.073318 1673516787.615738
5.975863 0.210898 -0.073327 1673516787.620758
5.976323 0.210821 -0.073336 1673516787.625762
5.976782 0.210745 -0.073345 1673516787.630764
5.977239 0.210668 -0.073354 1673516787.635742
5.977444 0.211090 -0.072832 1673516787.644666
5.977535 0.211079 -0.072829 1673516787.645725
5.977968 0.211028 -0.072814 1673516787.650740
5.978400 0.210976 -0.072798 1673516787.655754
5.978830 0.210925 -0.072783 1673516787.660741
5.979265 0.210873 -0.072768 1673516787.665785
5.979693 0.210822 -0.072752 1673516787.670744
5.980125 0.210771 -0.072737 1673516787.675748
5.980554 0.210720 -0.072722 1673516787.680731
5.980990 0.210668 -0.072706 1673516787.685779
5.981416 0.210617 -0.072691 1673516787.690719
5.981850 0.210565 -0.072676 1673516787.695751
5.982281 0.210514 -0.072660 1673516787.700756
5.982711 0.210463 -0.072645 1673516787.705744
5.983140 0.210411 -0.072630 1673516787.710720
5.983577 0.210359 -0.072614 1673516787.715777
5.984006 0.210308 -0.072599 1673516787.720759
5.984438 0.210257 -0.072584 1673516787.725764
5.984869 0.210205 -0.072568 1673516787.730763
5.985298 0.210154 -0.072553 1673516787.735736
5.986327 0.209812 -0.072247 1673516787.745470
5.986350 0.209809 -0.072246 1673516787.745723
5.986791 0.209746 -0.072218 1673516787.750737
5.987229 0.209684 -0.072190 1673516787.755717
5.987671 0.209621 -0.072162 1673516787.760740
5.988110 0.209559 -0.072135 1673516787.765733
5.988550 0.209496 -0.072107 1673516787.770739
5.988990 0.209434 -0.072079 1673516787.775734
5.989433 0.209371 -0.072051 1673516787.780777
5.989869 0.209309 -0.072023 1673516787.785726
5.990311 0.209247 -0.071995 1673516787.790757
5.990752 0.209184 -0.071967 1673516787.795770
5.991189 0.209122 -0.071940 1673516787.800736
5.991635 0.209059 -0.071911 1673516787.805800
5.992070 0.208997 -0.071884 1673516787.810746
5.992512 0.208934 -0.071856 1673516787.815778
5.992949 0.208872 -0.071828 1673516787.820740
5.993389 0.208810 -0.071800 1673516787.825744
5.993829 0.208748 -0.071772 1673516787.830742
5.994269 0.208685 -0.071744 1673516787.835751
5.994710 0.208623 -0.071717 1673516787.840758
5.995357 0.207917 -0.071450 1673516787.847879
5.995607 0.207866 -0.071428 1673516787.850718
5.996049 0.207775 -0.071390 1673516787.855731
5.996491 0.207685 -0.071352 1673516787.860750
5.996935 0.207594 -0.071314 1673516787.865790
5.997373 0.207505 -0.071276 1673516787.870755
5.997816 0.207414 -0.071238 1673516787.875779
5.998253 0.207325 -0.071200 1673516787.880734
5.998695 0.207235 -0.071162 1673516787.885753
5.999132 0.207145 -0.071124 1673516787.890713
5.999576 0.207055 -0.071086 1673516787.895741
6.000015 0.206965 -0.071048 1673516787.900722
6.000467 0.206873 -0.071009 1673516787.905848
6.000901 0.206784 -0.070971 1673516787.910780
6.001341 0.206694 -0.070933 1673516787.915767
6.001780 0.206604 -0.070896 1673516787.920750
6.002221 0.206514 -0.070858 1673516787.925751
6.002663 0.206424 -0.070819 1673516787.930766
6.003105 0.206334 -0.070781 1673516787.935779
6.003815 0.206189 -0.070720 1673516787.943829
6.005801 0.208537 -0.070772 1673516787.948759
6.006001 0.208544 -0.070759 1673516787.950721
6.006513 0.208563 -0.070724 1673516787.955740
6.007023 0.208583 -0.070691 1673516787.960730
6.007535 0.208602 -0.070656 1673516787.965747
6.008043 0.208621 -0.070622 1673516787.970730
6.008556 0.208640 -0.070588 1673516787.975751
6.009114 0.208661 -0.070551 1673516787.981225
6.009576 0.208679 -0.070520 1673516787.985746
6.010088 0.208698 -0.070486 1673516787.990767
6.010603 0.208717 -0.070452 1673516787.995806
6.011106 0.208736 -0.070418 1673516788.000739
6.011619 0.208755 -0.070384 1673516788.005762
6.012129 0.208775 -0.070350 1673516788.010760
6.012639 0.208794 -0.070316 1673516788.015759
6.013148 0.208813 -0.070282 1673516788.020746
6.013663 0.208832 -0.070248 1673516788.025788
6.014172 0.208851 -0.070214 1673516788.030775
6.014682 0.208871 -0.070180 1673516788.035770
6.015188 0.208890 -0.070146 1673516788.040735
6.016714 0.208815 -0.070300 1673516788.050062
6.016785 0.208817 -0.070296 1673516788.050724
6.017331 0.208831 -0.070272 1673516788.055815
6.017861 0.208845 -0.070248 1673516788.060760
6.018403 0.208860 -0.070223 1673516788.065817
6.018938 0.208874 -0.070199 1673516788.070804
6.019467 0.208888 -0.070175 1673516788.075743
6.020004 0.208902 -0.070150 1673516788.080757
6.020544 0.208917 -0.070126 1673516788.085792
6.021076 0.208931 -0.070102 1673516788.090755
6.021609 0.208945 -0.070077 1673516788.095731
6.022150 0.208959 -0.070053 1673516788.100772
6.022692 0.208974 -0.070028 1673516788.105828
6.023220 0.208988 -0.070004 1673516788.110759
6.023758 0.209002 -0.069980 1673516788.115777
6.024293 0.209016 -0.069955 1673516788.120763
6.024829 0.209031 -0.069931 1673516788.125770
6.025364 0.209045 -0.069907 1673516788.130755
6.025898 0.209059 -0.069883 1673516788.135739
6.026440 0.209074 -0.069858 1673516788.140798
6.027692 0.211041 -0.070461 1673516788.151555
6.027702 0.211042 -0.070461 1673516788.151647
6.028144 0.211125 -0.070465 1673516788.155740
6.028693 0.211226 -0.070470 1673516788.160813
6.029226 0.211325 -0.070475 1673516788.165752
6.029767 0.211426 -0.070480 1673516788.170758
6.030309 0.211526 -0.070484 1673516788.175769
6.030850 0.211626 -0.070489 1673516788.180775
6.031385 0.211725 -0.070494 1673516788.185722
6.031925 0.211826 -0.070499 1673516788.190723
6.032469 0.211927 -0.070503 1673516788.195760
6.033113 0.212046 -0.070509 1673516788.201718
6.033548 0.212127 -0.070513 1673516788.205745
6.034088 0.212227 -0.070518 1673516788.210735
6.034630 0.212327 -0.070522 1673516788.215751
6.035170 0.212428 -0.070527 1673516788.220749
6.035711 0.212528 -0.070532 1673516788.225760
6.036251 0.212628 -0.070537 1673516788.230755
6.036790 0.212728 -0.070542 1673516788.235739
6.037333 0.212829 -0.070546 1673516788.240770
6.038588 0.212844 -0.071395 1673516788.250017
6.038665 0.212857 -0.071401 1673516788.250721
6.039219 0.212950 -0.071444 1673516788.255738
6.039778 0.213044 -0.071488 1673516788.260796
6.040326 0.213136 -0.071530 1673516788.265769
6.040876 0.213228 -0.071573 1673516788.270746
6.041429 0.213321 -0.071616 1673516788.275761
6.041982 0.213413 -0.071659 1673516788.280766
6.042535 0.213506 -0.071702 1673516788.285777
6.043087 0.213599 -0.071745 1673516788.290781
6.043638 0.213691 -0.071787 1673516788.295773
6.044189 0.213783 -0.071830 1673516788.300758
6.044738 0.213875 -0.071873 1673516788.305737
6.045292 0.213968 -0.071916 1673516788.310757
6.045843 0.214060 -0.071959 1673516788.315742
6.046396 0.214153 -0.072002 1673516788.320752
6.046948 0.214246 -0.072044 1673516788.325752
6.047502 0.214339 -0.072087 1673516788.330774
6.048053 0.214431 -0.072130 1673516788.335769
6.048604 0.214523 -0.072173 1673516788.340760
6.049637 0.213310 -0.073603 1673516788.350901
6.049646 0.213311 -0.073605 1673516788.350982
6.050167 0.213338 -0.073703 1673516788.355729
6.050719 0.213368 -0.073808 1673516788.360767
6.051265 0.213397 -0.073911 1673516788.365756
6.051811 0.213425 -0.074015 1673516788.370732
6.052358 0.213454 -0.074118 1673516788.375726
6.052908 0.213483 -0.074223 1673516788.380747
6.053457 0.213513 -0.074327 1673516788.385753
6.054008 0.213542 -0.074431 1673516788.390781
6.054551 0.213570 -0.074534 1673516788.395737
6.055101 0.213599 -0.074638 1673516788.400752
6.055644 0.213628 -0.074741 1673516788.405702
6.056198 0.213658 -0.074846 1673516788.410764
6.056755 0.213687 -0.074951 1673516788.415840
6.057294 0.213716 -0.075053 1673516788.420759
6.057839 0.213744 -0.075156 1673516788.425733
6.058392 0.213774 -0.075261 1673516788.430780
6.058938 0.213802 -0.075364 1673516788.435757
6.059484 0.213831 -0.075468 1673516788.440742
6.059732 0.211988 -0.076768 1673516788.449171
6.059898 0.211969 -0.076818 1673516788.450776
6.060411 0.211911 -0.076973 1673516788.455739
6.060928 0.211852 -0.077129 1673516788.460740
6.061446 0.211793 -0.077286 1673516788.465762
6.061964 0.211734 -0.077442 1673516788.470771
6.062483 0.211675 -0.077599 1673516788.475791
6.062998 0.211616 -0.077755 1673516788.480780
6.063513 0.211557 -0.077910 1673516788.485757
6.064029 0.211498 -0.078066 1673516788.490755
6.064546 0.211439 -0.078222 1673516788.495764
6.065062 0.211381 -0.078378 1673516788.500750
6.065577 0.211322 -0.078534 1673516788.505733
6.066094 0.211263 -0.078690 1673516788.510741
6.066613 0.211204 -0.078846 1673516788.515760
6.067131 0.211145 -0.079003 1673516788.520776
6.067646 0.211086 -0.079159 1673516788.525763
6.068165 0.211027 -0.079315 1673516788.530780
6.068681 0.210968 -0.079471 1673516788.535782
6.069194 0.210910 -0.079626 1673516788.540744
6.069711 0.210851 -0.079782 1673516788.545747
6.069503 0.210591 -0.081122 1673516788.553674
6.069697 0.210563 -0.081207 1673516788.555741
6.070169 0.210497 -0.081412 1673516788.560749
6.070641 0.210430 -0.081618 1673516788.565773
6.071113 0.210364 -0.081824 1673516788.570782
6.071583 0.210297 -0.082029 1673516788.575777
6.072051 0.210231 -0.082233 1673516788.580755
6.072522 0.210165 -0.082439 1673516788.585763
6.072993 0.210099 -0.082644 1673516788.590762
6.073462 0.210032 -0.082848 1673516788.595748
6.073933 0.209966 -0.083054 1673516788.600761
6.074407 0.209899 -0.083260 1673516788.605798
6.074877 0.209833 -0.083465 1673516788.610788
6.075346 0.209767 -0.083670 1673516788.615772
6.075814 0.209701 -0.083874 1673516788.620752
6.076287 0.209634 -0.084080 1673516788.625778
6.076756 0.209568 -0.084285 1673516788.630763
6.077222 0.209502 -0.084488 1673516788.635713
6.077696 0.209435 -0.084694 1673516788.640745
6.078168 0.209369 -0.084900 1673516788.645761
6.078929 0.207856 -0.086263 1673516788.655793
6.078942 0.207852 -0.086270 1673516788.655932
6.079386 0.207729 -0.086508 1673516788.660736
6.079854 0.207600 -0.086758 1673516788.665795
6.080311 0.207474 -0.087003 1673516788.670740
6.080775 0.207346 -0.087251 1673516788.675754
6.081238 0.207218 -0.087498 1673516788.680761
6.081704 0.207089 -0.087748 1673516788.685804
6.082167 0.206961 -0.087996 1673516788.690808
6.082620 0.206836 -0.088238 1673516788.695714
6.083089 0.206707 -0.088489 1673516788.700782
6.083552 0.206579 -0.088737 1673516788.705784
6.084014 0.206451 -0.088984 1673516788.710789
6.084473 0.206325 -0.089230 1673516788.715748
6.084936 0.206197 -0.089477 1673516788.720757
6.085400 0.206069 -0.089726 1673516788.725774
6.085862 0.205941 -0.089973 1673516788.730769
6.086322 0.205814 -0.090219 1673516788.735741
6.086786 0.205686 -0.090467 1673516788.740762
6.087272 0.205552 -0.090727 1673516788.746013
6.088863 0.203994 -0.092630 1673516788.761620
6.088873 0.203990 -0.092636 1673516788.761727
6.089344 0.203812 -0.092933 1673516788.766757
6.089811 0.203635 -0.093228 1673516788.771741
6.090282 0.203458 -0.093525 1673516788.776761
6.090755 0.203279 -0.093823 1673516788.781807
6.091221 0.203103 -0.094117 1673516788.786780
6.091690 0.202926 -0.094412 1673516788.791783
6.092155 0.202750 -0.094706 1673516788.796745
6.092627 0.202572 -0.095003 1673516788.801778
6.093095 0.202395 -0.095299 1673516788.806779
6.093564 0.202218 -0.095594 1673516788.811783
6.094032 0.202041 -0.095889 1673516788.816774
6.094508 0.201862 -0.096189 1673516788.821848
6.094972 0.201686 -0.096482 1673516788.826801
6.095444 0.201508 -0.096780 1673516788.831836
6.095909 0.201332 -0.097073 1673516788.836799
6.096377 0.201156 -0.097368 1673516788.841792
6.096855 0.200975 -0.097669 1673516788.846891
6.097690 0.201300 -0.098701 1673516788.856673
6.097695 0.201299 -0.098705 1673516788.856731
6.098165 0.201150 -0.099024 1673516788.861783
6.098629 0.201004 -0.099339 1673516788.866771
6.099092 0.200857 -0.099654 1673516788.871753
6.099558 0.200710 -0.099970 1673516788.876769
6.100024 0.200563 -0.100287 1673516788.881776
6.100489 0.200416 -0.100602 1673516788.886775
6.100957 0.200268 -0.100920 1673516788.891806
6.101417 0.200122 -0.101233 1673516788.896753
6.101891 0.199972 -0.101555 1673516788.901859
6.102355 0.199826 -0.101870 1673516788.906849
6.102814 0.199681 -0.102182 1673516788.911784
6.103284 0.199532 -0.102501 1673516788.916837
6.103743 0.199387 -0.102813 1673516788.921774
6.104209 0.199240 -0.103129 1673516788.926778
6.104675 0.199092 -0.103446 1673516788.931796
6.105136 0.198947 -0.103759 1673516788.936751
6.105603 0.198799 -0.104076 1673516788.941769
6.106080 0.198649 -0.104400 1673516788.946897
6.107046 0.198572 -0.105074 1673516788.955812
6.107136 0.198546 -0.105135 1673516788.956760
6.107609 0.198407 -0.105457 1673516788.961779
6.108085 0.198267 -0.105781 1673516788.966830
6.108551 0.198129 -0.106099 1673516788.971784
6.109024 0.197991 -0.106420 1673516788.976794
6.109498 0.197851 -0.106744 1673516788.981831
6.109972 0.197712 -0.107066 1673516788.986860
6.110435 0.197576 -0.107382 1673516788.991775
6.111259 0.197334 -0.107942 1673516789.000511
6.111375 0.197300 -0.108021 1673516789.001742
6.111848 0.197160 -0.108344 1673516789.006764
6.112318 0.197022 -0.108664 1673516789.011750
6.112791 0.196883 -0.108986 1673516789.016774
6.113262 0.196745 -0.109306 1673516789.021766
6.113735 0.196606 -0.109628 1673516789.026782
6.114207 0.196467 -0.109950 1673516789.031796
6.114676 0.196329 -0.110269 1673516789.036767
6.115145 0.196191 -0.110589 1673516789.041752
6.115620 0.196052 -0.110912 1673516789.046787
6.117175 0.197304 -0.111964 1673516789.058097
6.117196 0.197301 -0.111979 1673516789.058314
6.117542 0.197253 -0.112214 1673516789.061815
6.118033 0.197185 -0.112548 1673516789.066800
6.118893 0.197066 -0.113133 1673516789.075514
6.119393 0.196997 -0.113473 1673516789.080586
6.119506 0.196981 -0.113550 1673516789.081727
6.120003 0.196913 -0.113888 1673516789.086765
6.120497 0.196844 -0.114224 1673516789.091774
6.120992 0.196776 -0.114561 1673516789.096802
6.121485 0.196707 -0.114896 1673516789.101799
6.121975 0.196639 -0.115230 1673516789.106766
6.122468 0.196571 -0.115565 1673516789.111760
6.122962 0.196503 -0.115901 1673516789.116766
6.123459 0.196434 -0.116239 1673516789.121810
6.123951 0.196366 -0.116574 1673516789.126793
6.124445 0.196298 -0.116910 1673516789.131810
6.124938 0.196229 -0.117245 1673516789.136800
6.125429 0.196161 -0.117579 1673516789.141784
6.125922 0.196093 -0.117915 1673516789.146785
6.126416 0.196025 -0.118251 1673516789.151788
6.127445 0.195414 -0.118986 1673516789.160007
6.127620 0.195383 -0.119106 1673516789.161745
6.128126 0.195292 -0.119451 1673516789.166774
6.128628 0.195202 -0.119795 1673516789.171772
6.129132 0.195111 -0.120139 1673516789.176778
6.129636 0.195020 -0.120484 1673516789.181792
6.130138 0.194930 -0.120826 1673516789.186778
6.130639 0.194840 -0.121169 1673516789.191767
6.131141 0.194750 -0.121512 1673516789.196760
6.131645 0.194659 -0.121857 1673516789.201765
6.132151 0.194568 -0.122202 1673516789.206794
6.132650 0.194479 -0.122544 1673516789.211762
6.133151 0.194389 -0.122886 1673516789.216738
6.133661 0.194297 -0.123234 1673516789.221809
6.134159 0.194207 -0.123575 1673516789.226764
6.134664 0.194116 -0.123920 1673516789.231786
6.135166 0.194026 -0.124263 1673516789.236776
6.135666 0.193936 -0.124605 1673516789.241750
6.136174 0.193845 -0.124952 1673516789.246802
6.136677 0.193755 -0.125295 1673516789.251795
6.139005 0.193327 -0.127117 1673516789.260441
6.139156 0.193300 -0.127223 1673516789.261770
6.139722 0.193197 -0.127621 1673516789.266760
6.140299 0.193093 -0.128026 1673516789.271837
6.140859 0.192992 -0.128419 1673516789.276771
6.141431 0.192889 -0.128820 1673516789.281800
6.141995 0.192787 -0.129215 1673516789.286767
6.142564 0.192684 -0.129614 1673516789.291773
6.143715 0.192477 -0.130422 1673516789.301913
6.143745 0.192471 -0.130443 1673516789.302169
6.144276 0.192375 -0.130816 1673516789.306849
6.144832 0.192275 -0.131206 1673516789.311743
6.145403 0.192172 -0.131607 1673516789.316772
6.145973 0.192069 -0.132007 1673516789.321792
6.146543 0.191966 -0.132406 1673516789.326805
6.147746 0.191749 -0.133250 1673516789.337393
6.147859 0.191729 -0.133329 1673516789.338387
6.148247 0.191658 -0.133602 1673516789.341811
6.148808 0.191557 -0.133995 1673516789.346747
6.149379 0.191454 -0.134396 1673516789.351773
6.152205 0.190590 -0.137070 1673516789.365579
6.152216 0.190588 -0.137078 1673516789.365664
6.152348 0.190561 -0.137177 1673516789.366731
6.152973 0.190433 -0.137645 1673516789.371751
6.153598 0.190305 -0.138113 1673516789.376773
6.154220 0.190177 -0.138580 1673516789.381775
6.154845 0.190049 -0.139048 1673516789.386796
6.155465 0.189922 -0.139512 1673516789.391780
6.156090 0.189794 -0.139981 1673516789.396809
6.156707 0.189667 -0.140443 1673516789.401767
6.157332 0.189539 -0.140911 1673516789.406790
6.157950 0.189413 -0.141374 1673516789.411757
6.158571 0.189285 -0.141840 1673516789.416749
6.159196 0.189157 -0.142308 1673516789.421773
6.159817 0.189030 -0.142774 1673516789.426771
6.160436 0.188903 -0.143238 1673516789.431746
6.161057 0.188776 -0.143703 1673516789.436737
6.161682 0.188648 -0.144171 1673516789.441762
