# .PCD v0.7 - Point Cloud Data file format
VERSION 0.7
FIELDS x y z
SIZE 4 4 4
TYPE F F F
COUNT 1 1 1
WIDTH 1429
HEIGHT 1
VIEWPOINT 0 0 0 1 0 0 0
POINTS 1429
DATA ascii
-0.58423084 -7.0642319 -0.34468463
0.62579536 -7.6691918 -0.22700545
0.85821724 -7.5453568 -0.22530666
0.9093647 -6.0879903 -0.29111156
1.2031403 -5.9404345 -0.29354689
1.4253969 -4.1388316 -0.25367287
1.8650644 -4.8964162 -0.21934977
2.2071471 -3.2014945 -0.23938158
-1.5755988 -6.8916926 -0.38250396
-0.22308573 -5.1508431 -0.5771023
-0.68822443 -5.2260146 -0.27198538
-0.67830646 -5.2418351 -0.29369596
-0.91076636 -7.8578367 -0.37199888
1.7640152 -7.5936151 -0.41803804
-0.81714296 -8.2011528 -0.40113595
-0.051127672 -8.2702484 -0.42688325
0.9679122 -8.2524376 -0.45389774
1.2892683 -5.8596115 -0.33337864
0.90233874 -6.0353327 -0.33215377
2.6925676 -7.6870799 -0.23242101
-0.48980862 -5.0803909 -0.38165763
-0.58949089 -7.5535784 -0.21646199
-0.78177798 -7.5608549 -0.20638493
-0.70002657 -6.8342814 -0.3678008
-0.6299876 -7.540318 -0.21272805
-0.6648066 -5.2369714 -0.32537016
0.78203177 -5.9663267 -0.36407295
1.2445748 -8.1498184 -0.40151361
1.0781136 -5.777554 -0.36808649
1.5045986 -8.0199156 -0.40844253
1.7973957 -8.0112457 -0.2791954
1.9229341 -7.6123843 -0.25849137
1.827347 -4.8834939 -0.33942971
1.8347564 -6.5734038 -0.31728104
1.9360833 -6.4839325 -0.31501201
2.6497474 -7.6869278 -0.17208233
1.5152632 -6.0098968 -0.4010326
-0.76366532 -5.2677464 -0.21153262
0.98716557 -3.9719462 -0.26822773
-0.98732376 -8.299572 -0.29562995
-1.4447033 -7.2094307 -0.20139524
1.7104534 -7.7256026 -0.25206819
0.7121259 -8.3517494 -0.23961487
0.29171875 -7.728312 -0.65760577
0.3689208 -3.9861512 -0.2914165
0.66301751 -5.0014892 -0.28028247
1.5781677 -4.334271 -0.28558692
1.4960997 -6.6611257 -0.30850199
1.7962582 -6.1732302 -0.27735582
1.6648114 -6.5541983 -0.30852625
1.8217885 -6.4305372 -0.30634311
0.53577787 -3.8456628 -0.31960234
1.6571548 -6.3617039 -0.38572088
0.59530497 -3.8025162 -0.31418189
0.49576694 -3.8303554 -0.30754343
1.873001 -7.543643 -0.35221091
1.7740499 -7.5573616 -0.34940818
0.43881911 -7.6540575 -0.31118467
0.26305354 -5.5663958 -0.34414533
-0.71508211 -5.2439852 -0.27639559
0.56291234 -3.8141515 -0.30749872
0.39976019 -3.8545597 -0.30804232
0.4003737 -5.0270991 -0.37263599
2.6701291 -7.6932731 -0.28038731
-1.5457795 -6.9207535 -0.31098452
-5.6020117 -2.8700161 -0.6405946
-1.1375852 -7.311079 -0.42008391
-1.327888 -7.2954092 -0.41452649
0.5669353 -3.8369892 -0.35621712
0.62606514 -7.6991143 -0.34984556
0.32604182 -5.5146885 -0.24759081
-0.58371222 -5.273036 -0.22033456
0.78946471 -7.5344725 -0.33345988
1.8756487 -7.573472 -0.36712506
1.5534503 -8.1915407 -0.41872576
1.775502 -8.1396341 -0.41974393
-0.44104183 -7.530787 -0.17616805
0.64695978 -7.6750154 -0.23935166
0.78895378 -6.0320125 -0.2864866
0.90663624 -8.0138712 -0.28904197
0.90774155 -7.6244106 -0.24708518
1.0974021 -5.8779345 -0.28883114
1.2300344 -5.7917638 -0.28799281
1.8597758 -4.8764591 -0.22908965
1.8636997 -4.7309127 -0.21206418
1.9302726 -7.5956411 -0.30239984
2.1770618 -3.2064481 -0.17757335
1.2532971 -3.9180207 -0.39437667
1.9660385 -4.8305578 -0.31553283
1.0747182 -6.4575043 -0.42172852
0.75806117 -6.5717812 -0.41253117
2.6722028 -7.6630392 -0.31066206
1.550576 -8.2495813 -0.29922393
1.7564585 -8.2481756 -0.30972853
1.1793041 -8.0452747 -0.44914761
1.515265 -8.2310658 -0.47678605
1.7787361 -8.2290783 -0.48415557
-0.96299928 -7.4771247 -0.40254429
-0.57567078 -7.3888769 -0.40108934
0.72418976 -7.5961413 -0.22908065
0.66209841 -6.4016128 -0.31306735
0.61236537 -4.9885159 -0.28213033
0.69032347 -4.9562459 -0.28318796
0.95366359 -8.267561 -0.3146117
1.077986 -7.5417485 -0.23963073
1.2168643 -6.1277142 -0.31061432
0.58322334 -4.9874563 -0.38090327
2.3989673 -3.2569854 -0.41195348
2.6376224 -7.6972861 -0.27303305
0.4889524 -5.0527949 -0.37780771
0.67913556 -4.9603047 -0.38554963
-3.2219305 -1.2237163 -0.19987223
-0.68759155 -6.9221935 -0.30252346
0.54188108 -3.8586044 -0.29027984
0.48911071 -3.9788704 -0.41551724
1.2306736 -3.9686255 -0.27702078
1.4353034 -6.3999262 -0.31044874
1.8353765 -6.2082162 -0.21708104
-1.478187 -6.8833733 -0.36239323
-1.4871593 -7.5400267 -0.20207861
-1.0233805 -7.3062639 -0.44273034
0.53096372 -6.2170138 -0.37043688
0.97842509 -8.216094 -0.40321425
0.96493715 -7.6248469 -0.20161751
0.90644068 -6.0833678 -0.38009235
1.342133 -8.1978178 -0.42502466
1.6081777 -8.0902834 -0.43151763
1.8917134 -5.5167837 -0.39170292
1.8601027 -4.8569193 -0.29774061
0.9323082 -5.4105783 -0.30400816
1.9536371 -7.5755472 -0.21995869
1.7603493 -8.2423191 -0.27141586
-0.71494007 -5.2601671 -0.21634808
-1.3728163 -6.9746227 -0.37337556
-0.66554856 -7.0404797 -0.39683071
-0.70368314 -5.2703743 -0.30541697
1.4442568 -4.1068273 -0.31191042
0.47175699 -7.571434 -0.31269118
0.34884691 -3.846411 -0.26424411
0.78685999 -7.5153322 -0.33286217
1.8917761 -7.586628 -0.37127987
-0.54562044 -8.2273121 -0.37311938
1.503468 -8.0717106 -0.40752533
1.7275367 -8.0167856 -0.40852216
0.41078281 -3.8418968 -0.27583018
1.862092 -4.7340622 -0.21713498
0.81645966 -6.1488676 -0.31030443
1.1134491 -6.0291624 -0.31246212
1.4054246 -5.8978786 -0.31386438
-0.68334246 -6.5921888 -0.29568043
2.618885 -7.6934824 -0.18245664
1.065866 -7.571774 -0.28278288
1.5249224 -7.5641437 -0.2935296
1.8902102 -7.5784259 -0.30460128
2.25701 -7.5767426 -0.31457028
0.50601721 -7.7151022 -0.54371774
0.52402067 -5.0335937 -0.26918378
1.748683 -6.5376091 -0.29753533
1.8443527 -6.1578784 -0.26495597
0.69413954 -7.6339016 -0.35159054
0.41883999 -7.4958515 -0.33250543
-0.98573625 -7.2164483 -0.30639032
-1.3954326 -7.3289042 -0.32893685
-1.1647698 -7.1233349 -0.29845187
-1.636379 -7.0683694 -0.30365708
1.9029341 -6.6998138 -0.26190183
-0.63092875 -5.2530317 -0.2928699
-0.68506432 -5.2586679 -0.32449803
2.2056651 -7.5976191 -0.32598743
-1.4632499 -6.9000587 -0.39942554
-1.0631922 -6.8143454 -0.39977542
0.97088742 -5.944685 -0.32584539
1.2432802 -5.8070021 -0.32483676
0.78362155 -6.0707731 -0.33069745
2.6806557 -7.6815939 -0.22687343
1.7970448 -7.5742674 -0.32729545
1.7635058 -7.5868578 -0.32733396
0.10388356 -7.6276207 -0.28161386
-1.5728946 -7.5132504 -0.24484769
-1.2186995 -7.3611412 -0.23201248
-0.99191695 -6.7747612 -0.17311487
-0.5768137 -5.2252846 -0.26803461
0.52929354 -3.8051355 -0.29685929
1.7121664 -6.0203905 -0.20010951
1.5953226 -6.0649281 -0.20235851
-1.3084482 -6.6790929 -0.47077563
0.31612 -4.0021539 -0.32262853
0.5745393 -3.8752856 -0.32756397
0.80300379 -7.6251631 -0.43185893
1.8074288 -7.5909071 -0.45788971
-0.044728279 -8.0233154 -0.44962195
1.2012606 -7.9977942 -0.47983578
1.4523401 -7.9748621 -0.48481706
-0.99531507 -8.0323553 -0.42928353
-1.6370219 -7.0031757 -0.23624042
-1.2394705 -7.5036831 -0.18642429
-0.94972491 -7.4262571 -0.42793158
-1.0650957 -7.1485868 -0.38288602
-0.87532127 -7.5278249 -0.19591144
-0.84027827 -6.7868514 -0.33140299
0.65766764 -7.6562347 -0.25679162
0.81373405 -7.4969354 -0.24442497
1.0169722 -7.5217166 -0.2558898
1.5127177 -8.2513666 -0.26666191
-0.40781796 -7.6026154 -0.17592773
0.65459883 -7.6542892 -0.22767636
0.56406057 -6.1733704 -0.28190741
0.91557252 -8.0173941 -0.27933386
0.91425335 -7.607028 -0.23584715
0.9481951 -6.0006719 -0.28581271
1.2114128 -5.8252673 -0.28295574
1.8675488 -4.8908238 -0.22485426
1.858404 -4.7269979 -0.20454988
0.46613762 -7.5934019 -0.30525866
-1.2761644 -7.5000086 -0.29595724
-0.98861599 -7.476759 -0.29220596
1.0628072 -3.9833663 -0.24009773
-1.395386 -7.2242117 -0.32931891
0.29281998 -6.9352493 -0.27402768
-1.0221595 -6.9680519 -0.28942654
-1.3521272 -6.9838524 -0.29878196
-1.6219273 -7.0008931 -0.30797479
1.8686479 -6.5552888 -0.2519885
-0.5826245 -5.2227449 -0.26579234
-5.6171136 -2.7926242 -0.63359272
-1.3877147 -7.5277443 -0.18106815
-1.2848501 -7.5968857 -0.19016239
-0.91048443 -7.282269 -0.39896211
-0.92493773 -7.5983119 -0.19440874
-0.99331343 -6.8115377 -0.32538286
0.36163265 -3.8539529 -0.28601417
0.70227027 -7.638433 -0.23744968
0.87185895 -7.5198421 -0.22935328
0.76961184 -6.5896449 -0.33847514
1.0654467 -7.5357833 -0.23829457
-0.6115737 -7.5682263 -0.21725604
-0.8752203 -6.5489054 -0.31741413
-0.69984055 -6.9372478 -0.3834953
-0.65639961 -7.5280137 -0.21032152
-0.64784741 -6.5841894 -0.33771959
-0.45153642 -5.0988393 -0.20457157
0.92261076 -5.7758975 -0.36384389
1.0547812 -5.6900096 -0.3666155
1.1792178 -3.9767332 -0.34262422
1.4666719 -7.8710046 -0.39813957
1.5854206 -7.7852144 -0.39949831
1.8119261 -7.6408205 -0.25998405
1.8765357 -4.9496226 -0.37106016
2.1797385 -7.5961485 -0.23664394
-0.25783384 -5.2307248 -0.34105292
1.0519197 -5.5815654 -0.30911723
0.87787652 -7.5722475 -0.19708589
1.8402307 -4.802177 -0.29046014
1.31708 -7.8843465 -0.34893712
1.7565792 -7.6245971 -0.23414323
2.2084792 -7.4752021 -0.26592192
-0.93070817 -7.4723158 -0.38296869
-1.1246089 -7.1389265 -0.32819381
-0.76047492 -7.3295002 -0.3667331
0.66506732 -7.6138496 -0.20800653
0.55665314 -4.9916401 -0.26495263
1.0159956 -7.529027 -0.21491691
1.2090336 -6.1055374 -0.2905623
1.2358116 -7.5650463 -0.2296845
1.4842793 -4.3750401 -0.17093405
1.87193 -4.9402828 -0.19117329
-1.1177624 -7.2053852 -0.40788594
-0.49079129 -5.2102613 -0.52968192
0.91702867 -7.093204 -0.41606489
1.5549204 -8.2858582 -0.26087829
2.5902474 -7.692862 -0.28685722
-1.5591388 -7.1507845 -0.23913756
-0.53137052 -5.1329408 -0.3017306
-1.6371064 -6.9337616 -0.3003864
0.5586741 -6.0497923 -0.24114516
1.9448965 -7.5944462 -0.4184722
1.8613265 -4.8175159 -0.38413027
-0.72012949 -5.2602768 -0.27214852
0.076354027 -5.5745316 -0.34888604
0.23499131 -5.5360422 -0.35367969
1.9103401 -7.5724363 -0.26026884
1.4415288 -4.1229658 -0.29956201
-0.61409473 -5.2332306 -0.28198972
1.8109951 -4.8252115 -0.40018395
1.957418 -7.5859842 -0.30600956
-1.5410534 -7.1417432 -0.24981502
-0.46466577 -5.0930023 -0.31496558
1.1052413 -7.5291815 -0.30229452
1.8141694 -7.5491161 -0.32747629
2.208653 -7.5987997 -0.34588483
-0.9559716 -6.7232976 -0.39850435
-1.1491221 -6.7517457 -0.39632902
0.44112188 -7.7154818 -0.53461611
-1.1610864 -7.1532593 -0.33227721
-0.60503244 -5.174788 -0.34364459
0.84769845 -6.7279897 -0.40609899
1.5654404 -7.6466837 -0.23225072
1.7313936 -8.262639 -0.29119369
1.70473 -4.7900257 -0.37040809
-0.76652241 -5.2663813 -0.27262202
2.1088867 -7.5923443 -0.28974655
-0.64021039 -7.0276251 -0.33871719
0.95207357 -7.5265226 -0.42594138
1.5845098 -7.8479586 -0.47313491
-0.69783592 -7.0808344 -0.28088585
-1.0884647 -7.5013494 -0.30819383
-0.9899025 -6.7291198 -0.40701237
-1.1786436 -6.72679 -0.40269163
-0.83912468 -6.8967466 -0.30878517
1.8599198 -7.5800076 -0.38679513
1.8825343 -8.1583042 -0.43383017
-0.69016767 -6.6110487 -0.2530475
0.77964425 -7.5929723 -0.43661311
1.0507815 -7.6517653 -0.44987431
-0.86001468 -7.8052468 -0.41952696
1.3864343 -7.8496308 -0.47908559
-1.2666273 -6.8899922 -0.30332687
-1.3895516 -6.6940908 -0.59358096
1.928453 -7.5744758 -0.3085942
2.1852193 -7.5990176 -0.31953308
-1.1123034 -6.9872146 -0.28539923
-1.647734 -7.0538459 -0.29235092
0.32210302 -3.867101 -0.30794469
1.8532586 -4.8074198 -0.27638522
1.2952352 -5.6426916 -0.33741596
1.7263217 -7.6190424 -0.22666541
1.9803963 -7.5717821 -0.23102441
2.6156049 -7.6787157 -0.26289788
2.1075258 -7.5795894 -0.34538081
-1.136204 -6.9144101 -0.28018853
-1.5393739 -6.9539304 -0.28514633
-0.72975326 -5.2721071 -0.21810475
-1.1592507 -6.9603071 -0.37713018
0.4683466 -6.9121943 -0.4206554
0.95386219 -6.8952627 -0.43528929
-1.1761825 -7.320178 -0.29382995
-0.68109393 -7.3831835 -0.3034282
1.6901271 -4.7960048 -0.4137986
1.7999551 -4.6905131 -0.4111903
1.0731027 -7.6595058 -0.31357345
2.1337717 -7.6000919 -0.3610613
-1.5430216 -6.9452214 -0.29757842
-1.0422155 -6.7617307 -0.26509812
-5.6131821 -2.8800581 -0.63657844
0.47102475 -3.9904468 -0.50880408
0.70317507 -5.0055647 -0.28681722
1.8846099 -6.6868525 -0.32121649
0.53751457 -7.6414871 -0.31871191
-1.643852 -7.0395589 -0.27511778
-0.56848419 -5.2203212 -0.24095491
0.31787992 -3.8587837 -0.29060635
0.81893277 -7.4669218 -0.36350223
2.0597336 -7.5607347 -0.40774551
-0.57914543 -8.1159687 -0.39879009
1.253144 -7.9337006 -0.42259637
1.4828522 -7.8996115 -0.42536154
-0.72202945 -5.2698421 -0.26137319
-1.2797108 -6.9091339 -0.40081099
-0.65465188 -6.9570217 -0.42131606
-1.2749624 -7.1541119 -0.33301654
-1.0334601 -7.1671457 -0.33998337
-0.77479172 -7.2333412 -0.3524951
0.76141548 -7.3439331 -0.40547195
1.1087866 -7.5451097 -0.27764133
1.465579 -7.5592995 -0.28881469
1.8230104 -7.5696182 -0.30011979
1.7274041 -4.8066406 -0.28230634
2.0647259 -7.5817227 -0.21412948
2.5994701 -7.6605868 -0.23973182
1.7302208 -8.242527 -0.26158205
-0.70512128 -6.9903736 -0.28511313
2.2136922 -3.2124484 -0.17707375
1.2458673 -3.9292865 -0.38457265
-0.71239519 -5.1111979 -0.35727015
0.71270084 -6.6365275 -0.40767017
1.0605569 -6.5050707 -0.41768125
1.6216264 -8.2582636 -0.29982248
0.77643371 -7.4781837 -0.36723641
1.4538929 -8.2246943 -0.46469405
1.8102019 -8.1717663 -0.47276762
0.31235647 -3.8772345 -0.27805629
1.8552938 -4.7445045 -0.22854343
0.86754131 -6.092751 -0.31495205
1.192122 -5.9484124 -0.31691721
-0.70186925 -6.5470634 -0.29382637
2.6107469 -7.6954579 -0.19669786
1.2514921 -5.2843194 -0.29136166
0.28817508 -5.5401864 -0.29072174
-0.6572969 -5.2762465 -0.25103655
-1.2927847 -7.0783901 -0.35725287
-1.0475807 -7.1213045 -0.36762646
1.8377051 -4.7882938 -0.32611403
-0.74293137 -5.2462931 -0.23348579
2.0345802 -7.5784988 -0.24348423
1.5705433 -8.2605047 -0.28550228
1.4500988 -5.3920407 -0.23094931
-0.60041785 -7.0907855 -0.36517784
-1.22293 -7.3200736 -0.42015269
-0.51084554 -5.1958456 -0.32498083
-0.57442284 -7.7484703 -0.34001204
0.81295395 -7.4732904 -0.30882773
2.039494 -7.5560875 -0.35054883
1.8185921 -7.6068068 -0.3490015
2.2547817 -7.5879269 -0.36001787
1.6194596 -8.2213049 -0.40293279
0.82811403 -7.55862 -0.411598
-0.31443 -7.6642003 -0.38811246
1.8454719 -4.8940992 -0.31147686
0.20730162 -5.499527 -0.28891829
1.7307911 -7.5983124 -0.22268072
1.7979064 -8.1362791 -0.273011
1.6180501 -8.240139 -0.27624372
0.41251901 -7.6529651 -0.44377723
-1.2169694 -7.1257114 -0.33018818
-0.68709415 -5.2387919 -0.26342586
-1.0007865 -7.1197767 -0.31673011
-1.2892489 -7.135747 -0.31941625
-1.5733292 -7.1035099 -0.31815156
0.30705947 -6.9104567 -0.3001518
-0.53929752 -5.236496 -0.46030322
0.62443304 -5.9820433 -0.28503796
1.0438342 -5.7563872 -0.28875962
0.80682993 -7.5926995 -0.25011906
1.2127178 -5.6238604 -0.28611735
1.864501 -4.772388 -0.24431416
1.5334752 -8.0052004 -0.33637533
1.6764431 -7.8404927 -0.32797632
2.2075255 -7.5757155 -0.3306388
0.36853647 -3.8800302 -0.26738408
1.8888483 -7.5652819 -0.36671367
1.5338287 -8.1124506 -0.40934268
1.7671838 -8.0814056 -0.41317311
-0.72519827 -7.0656395 -0.31262007
1.9896086 -7.6096849 -0.2361379
-0.61983848 -6.9815803 -0.41332915
-1.0147811 -6.8513532 -0.28759471
-1.4282773 -6.9487252 -0.29825333
-0.64118999 -5.2728992 -0.22408256
1.5110471 -6.0415897 -0.31248495
-1.297848 -7.6032591 -0.1919817
-0.93090296 -7.2543955 -0.39592567
0.90228909 -7.5203953 -0.23067757
0.80441898 -6.6104684 -0.34380719
1.8716888 -5.4541445 -0.23425791
-1.5444963 -6.9369307 -0.30403069
-1.0458467 -6.7696161 -0.27333727
1.7667104 -6.3457422 -0.2383984
-5.5807462 -2.8631432 -0.63310778
-0.59238493 -5.2325997 -0.23115703
-0.67329812 -7.0461535 -0.27333978
-1.0455008 -7.5335898 -0.30863991
1.8079772 -4.6321101 -0.29267815
1.4954998 -7.298563 -0.32348278
1.8576069 -7.4232173 -0.21457574
2.018219 -7.0626159 -0.33602694
-1.5625305 -7.1290421 -0.23672411
-0.71472585 -5.0576348 -0.30191639
-0.46187735 -7.5701156 -0.22839203
-0.65209115 -6.6041031 -0.3410801
-0.70116287 -5.2299418 -0.32451573
1.0276738 -5.762259 -0.36736873
1.4621397 -8.0404587 -0.33791634
1.8424453 -7.656888 -0.21432659
1.820459 -4.8907013 -0.34750387
2.1503429 -7.5922828 -0.28059235
-1.5819285 -6.9898529 -0.32795551
1.7023044 -6.255825 -0.24920586
2.2399099 -3.2173095 -0.19392094
1.8541582 -4.8006568 -0.31199732
1.5789607 -6.0763974 -0.42506114
0.57640719 -6.4499111 -0.39505067
1.5554578 -8.2719831 -0.29713228
1.7696617 -8.2767448 -0.30836764
-0.71505308 -7.0384841 -0.29101464
-1.6450797 -6.9372573 -0.28766671
-1.0358291 -6.7931495 -0.27363995
-0.6816864 -5.2747445 -0.21783802
0.65241456 -7.5669785 -0.30335286
-1.0094662 -7.2040329 -0.26582327
-1.402534 -7.2514477 -0.27973172
-1.1322753 -7.1757851 -0.26475164
-1.3919976 -7.1328201 -0.26552483
-1.6525621 -7.0805683 -0.26606932
1.9273276 -6.707365 -0.22805199
1.9786773 -4.8203602 -0.18786588
1.3467965 -6.3795662 -0.30277768
1.7405272 -6.211484 -0.19116023
1.775335 -7.5611954 -0.35354778
-1.6129748 -7.5030031 -0.2523407
-1.2978016 -7.4593935 -0.40853909
0.48515576 -3.8838756 -0.33361003
0.86201787 -7.5554914 -0.41190985
-1.1888804 -7.7107611 -0.37344918
-0.27477312 -7.7110767 -0.3946012
1.4854624 -4.0960345 -0.27038118
0.73794055 -6.4193006 -0.31802383
2.7584808 -7.666244 -0.17278734
-1.5567721 -6.9270272 -0.30657193
-0.96742201 -7.4246302 -0.4134784
-0.79551578 -7.1840148 -0.38053289
-0.64998186 -5.2551475 -0.26034757
0.92003906 -8.2883577 -0.18707862
0.93992305 -7.5187812 -0.24098608
-3.2157984 -1.2349513 -0.16268972
0.42067194 -3.9265711 -0.31218246
0.56036377 -3.8673704 -0.3141109
1.1500049 -3.9528654 -0.36127689
1.9578557 -7.5724707 -0.37668636
2.1641936 -7.5892019 -0.38675383
1.3849866 -4.0777998 -0.35040352
1.8801219 -4.7889342 -0.20238397
1.2437375 -6.3213778 -0.33206388
2.5905325 -7.6967711 -0.17817029
-0.7004776 -5.2514839 -0.27358332
1.8245149 -4.8603363 -0.39484552
1.9269695 -7.5819569 -0.28923944
-1.5105174 -7.528728 -0.19919148
-1.0269556 -7.3060541 -0.44157282
0.53373539 -6.1962509 -0.36469218
0.95463991 -8.2316771 -0.40121511
0.88419318 -6.0702596 -0.37320194
1.3505594 -8.1836882 -0.42152801
1.6512858 -8.0647469 -0.42887726
1.4470348 -4.0967002 -0.29545167
1.8010538 -4.6181717 -0.40321901
1.7746336 -4.7432251 -0.41459575
0.51085925 -3.8880272 -0.34404603
1.8015301 -7.78192 -0.36807016
0.76946139 -7.4828115 -0.40968528
1.8209178 -7.5631013 -0.4480342
-0.9357121 -8.2793465 -0.44798484
0.037206888 -8.2569771 -0.46727005
1.308511 -8.2129211 -0.4960548
1.7785268 -4.81497 -0.42639008
0.70903301 -4.9858999 -0.3711417
1.9997673 -7.5782185 -0.31652668
-0.63427901 -5.1181755 -0.26097944
-0.30526817 -7.5868621 -0.30739787
1.8317957 -4.7929435 -0.41494957
1.6702931 -7.4694839 -0.45019761
2.0188777 -7.0981293 -0.44395056
-1.4316143 -6.9196682 -0.37703684
-1.4969758 -7.5399213 -0.20975134
0.49990499 -6.196528 -0.37283936
0.93939412 -8.2746811 -0.22365215
0.8783046 -6.0707521 -0.3836877
1.3458036 -8.1861181 -0.43388632
1.6725415 -8.0642719 -0.44305542
1.8816589 -5.4996247 -0.39585951
-1.5607736 -6.7420864 -0.6136018
0.53945971 -3.8659613 -0.26534018
-1.5024364 -7.0348401 -0.29346499
1.7722076 -6.5736408 -0.24896422
0.42765701 -6.9065099 -0.26301339
-1.6378963 -7.0195417 -0.2949194
1.8866022 -6.5070019 -0.24478498
-5.4741421 -2.8120904 -0.59774137
-1.1545577 -7.2162981 -0.31942937
-1.0285089 -7.1858454 -0.31645486
0.18595716 -6.9757071 -0.31365541
0.5867002 -6.9108448 -0.31930813
-0.6185813 -5.2391481 -0.22386852
0.44262287 -3.8395615 -0.26951006
1.9240012 -6.1451898 -0.17512718
-0.11230501 -5.1097155 -0.38078019
-0.47535685 -5.1630726 -0.37889597
-0.73873562 -5.1589322 -0.37269518
-0.69850302 -6.9611063 -0.27719846
1.4251761 -8.2274323 -0.42031196
2.2373669 -3.1615672 -0.39439693
-0.60495543 -5.2423387 -0.32203797
1.4502327 -4.0761795 -0.27378669
2.7015274 -7.6735091 -0.27517918
0.80293441 -7.4966826 -0.33375219
1.9072063 -7.5645604 -0.37030938
1.4880493 -7.9749131 -0.39922658
1.7112458 -7.9265895 -0.40049699
-0.57722712 -5.0631218 -0.29283896
0.26497459 -7.3870058 -0.3328068
-1.0398085 -7.1940479 -0.31179461
-1.3202289 -7.1944532 -0.31312737
-1.588344 -7.0996304 -0.30590639
0.40766814 -3.916189 -0.32286814
-1.4084104 -6.8665323 -0.34757099
-0.9952991 -6.8037176 -0.34241006
1.6278077 -6.419323 -0.39563319
-0.46032095 -5.0797873 -0.3202776
0.49857488 -3.865485 -0.31679031
1.5033026 -4.1330137 -0.26021454
1.5658238 -4.3373179 -0.39471206
1.7174637 -6.7571793 -0.31319806
1.7066104 -6.5576248 -0.42988053
2.6352074 -7.6766109 -0.31652638
0.86996341 -7.5609779 -0.41309395
-1.1883638 -7.6955729 -0.37212369
-0.27007937 -7.7030077 -0.39422795
-1.4586551 -7.5158768 -0.24723151
-1.3143436 -6.0855465 -0.27010909
-0.6039803 -7.6175356 -0.34934965
0.6564427 -7.6870451 -0.33158973
-0.99194175 -7.2940054 -0.29344234
-1.0952821 -7.0833406 -0.27036425
-1.3332431 -7.1148229 -0.27956942
-1.6194842 -7.0421667 -0.27856359
1.882123 -6.6606393 -0.23204777
-0.58073258 -5.245605 -0.24107197
0.64877743 -7.703619 -0.23352543
1.8633282 -7.5898256 -0.23647991
-0.51295924 -5.236043 -0.27590999
-3.2701943 -1.064045 -0.23793402
1.8790984 -4.8406897 -0.3849698
-0.7246213 -5.2449732 -0.26512608
0.35551691 -5.5232086 -0.35555205
2.0962596 -7.5755978 -0.27829143
1.8413382 -4.7751818 -0.35852066
1.1752405 -5.6599488 -0.40086165
-0.89023256 -6.2460856 -0.33890834
-0.73827553 -6.2306142 -0.34511939
-1.2799218 -6.7472377 -0.38696745
-0.65600562 -6.81774 -0.4095197
1.9415345 -4.7784414 -0.20066473
1.2909474 -6.3319855 -0.31511697
1.8468242 -6.1643577 -0.18398723
2.6586385 -7.7107215 -0.1873295
0.93381739 -7.4832339 -0.42726496
-1.0758033 -7.4599671 -0.36677602
-0.33404541 -7.511313 -0.39143696
-0.96836007 -6.6759191 -0.39306208
-1.1664217 -6.6889806 -0.38946125
-1.569491 -6.7321734 -0.38478979
1.5420947 -6.1161356 -0.3227894
1.0058577 -5.6950817 -0.29760823
1.1660702 -5.5506992 -0.29302201
1.873369 -4.7651982 -0.26663259
1.4636452 -7.8513374 -0.33231261
0.34687114 -3.8806772 -0.28971115
1.1084998 -6.0878496 -0.33294585
0.88463855 -6.186429 -0.33131781
0.92585444 -7.5428934 -0.37519303
1.7212765 -7.6441956 -0.40705517
-0.76179409 -8.2213621 -0.40324321
1.4603374 -8.2269716 -0.45603612
1.7211864 -8.2207422 -0.46266273
1.874831 -7.5620575 -0.3609468
2.1265371 -7.5811357 -0.37278071
1.4509797 -4.1573229 -0.25622085
1.8340011 -4.8143859 -0.35432997
0.62650442 -6.0854692 -0.39455119
0.84984064 -6.0160003 -0.40284029
1.4094868 -5.7484503 -0.41605583
-0.89622641 -6.5359468 -0.34965625
2.5967259 -7.6610832 -0.31848803
1.4908118 -8.2608337 -0.30501154
2.2135537 -3.2157657 -0.19234779
1.2619598 -3.93946 -0.41194955
-0.72379184 -5.0364814 -0.37056097
1.8989437 -4.7971239 -0.31351444
0.70339227 -6.5562725 -0.40863195
0.91813445 -6.4787664 -0.41522494
2.5811818 -7.6831579 -0.30285856
1.6487167 -8.2678766 -0.29855666
-1.0344958 -6.5580134 -0.39718518
-1.0200216 -6.3767433 -0.25037643
-1.344214 -6.336884 -0.25242975
1.598003 -5.9740334 -0.21075878
0.72952223 -8.3514748 -0.20970085
-1.4669567 -7.5016356 -0.24174342
-1.5875806 -7.0667791 -0.20452818
-0.58781028 -5.2472825 -0.24013951
1.8131576 -4.6186304 -0.30203137
1.7717743 -4.8126903 -0.32169506
-0.71156263 -5.24505 -0.23936757
1.6143208 -7.5842671 -0.25304958
2.0648503 -7.5775924 -0.26858649
-0.51990157 -5.2309361 -0.22221729
1.0133009 -7.60008 -0.41364208
-0.85231781 -8.0168667 -0.40555325
0.91622925 -8.0336742 -0.45209864
1.6930494 -7.9736609 -0.46949783
0.86610556 -7.5110931 -0.3354114
2.0791879 -7.5498886 -0.37184986
1.8575029 -8.2078247 -0.43047562
1.8046827 -4.8091888 -0.43228701
-0.64621329 -5.2747774 -0.31631771
0.89964771 -7.5092373 -0.38532504
-1.1238098 -7.8240013 -0.3637372
-0.19959736 -7.8106604 -0.38265106
1.7821476 -8.1943083 -0.48469916
1.8495071 -7.5647144 -0.42091325
-0.62155932 -5.2285256 -0.35269597
1.8325818 -4.8030329 -0.32891229
-0.63641191 -5.2211723 -0.24028495
2.0260522 -7.5775442 -0.24962202
1.6739242 -8.2377729 -0.29536787
-0.64783168 -6.6848903 -0.42896631
0.99747872 -7.6536698 -0.27827922
1.4950707 -7.725678 -0.30128637
1.7975209 -7.607511 -0.30093911
2.1529834 -7.5879397 -0.31180027
1.7897997 -4.8074946 -0.35096291
-0.6924479 -5.2305264 -0.27249053
0.50467825 -5.046824 -0.30596355
0.7360611 -4.9744744 -0.30950513
1.9122353 -7.6248422 -0.26782015
1.5979338 -8.1678371 -0.30599776
1.3900156 -8.230402 -0.30492678
-0.64742684 -6.6338296 -0.40253118
-1.548351 -6.7463236 -0.58702219
0.60111767 -3.8281267 -0.27027759
-1.0287699 -6.3732629 -0.26297173
-1.3212621 -6.3518653 -0.26524529
1.5838112 -5.9987001 -0.23692843
-1.4112672 -7.251101 -0.31821784
-1.651381 -6.9903898 -0.29281434
1.8036246 -6.4359703 -0.23538247
-0.57252854 -5.1029768 -0.25436619
0.99384332 -7.5932679 -0.40577391
-0.83949661 -8.1138191 -0.4111214
0.9395988 -8.1425076 -0.4566181
1.7282965 -8.1124763 -0.4761031
-0.064542294 -8.2320633 -0.43980816
-1.5461516 -6.9569154 -0.30571905
1.775543 -6.3542905 -0.23830774
-0.50548315 -5.0912833 -0.267342
-5.5039835 -2.8316534 -0.61913049
1.8399272 -4.686419 -0.23586693
1.0576663 -5.7039213 -0.30348125
-1.233289 -7.1211267 -0.38759241
-0.92323518 -7.3871021 -0.44052091
0.69392991 -7.6130157 -0.3017222
0.61214805 -6.218967 -0.36570814
0.9616679 -6.076611 -0.37435713
1.405394 -8.2797098 -0.27216789
1.5755466 -8.1912956 -0.42314389
1.7123193 -8.1386127 -0.42733327
1.7215408 -7.7708325 -0.38915321
0.62563819 -7.5970988 -0.32281306
-1.0286769 -7.3984771 -0.30914357
-1.4471015 -7.4015756 -0.31881055
-1.1076159 -6.9947605 -0.26235273
-1.3740143 -7.0000296 -0.26931903
-1.6475277 -7.0212431 -0.27920529
-0.59643388 -5.2177124 -0.24224898
-5.6039252 -2.8674901 -0.6243912
1.4894495 -4.0979052 -0.28804138
2.3359466 -3.2225204 -0.41835418
0.62648582 -4.9836512 -0.41150323
0.49285126 -5.0402603 -0.38397983
1.8217216 -4.7502251 -0.3280724
1.6570878 -4.7991896 -0.32228312
0.38464212 -5.4922504 -0.32321092
-0.75552559 -5.2283945 -0.23268363
-0.42691731 -5.1460257 -0.2388539
0.21926451 -5.5205145 -0.31745705
1.9152465 -7.5824966 -0.24066982
2.1654091 -7.5951252 -0.25210819
1.5733485 -8.2605391 -0.28565666
1.7286057 -8.0970888 -0.2775217
-1.4010084 -7.2178392 -0.32162181
-1.5729034 -7.004365 -0.29977879
1.8335495 -6.5035996 -0.25623128
-5.3554797 -2.7623835 -0.56940627
-0.62520909 -5.2482738 -0.24843052
-2.4378252 -4.7941675 -0.57366741
-1.4698579 -7.5657253 -0.18917385
-1.0732231 -6.3848524 -0.33414796
1.5415322 -6.0392241 -0.36328998
-1.1223958 -7.1325521 -0.41197434
-0.49423257 -5.1926603 -0.38264021
-1.4647348 -6.891305 -0.3735905
-1.5028667 -7.5370474 -0.21147516
-1.0079901 -7.2477417 -0.44471362
-1.1802073 -6.913558 -0.38733789
0.52272654 -7.6442022 -0.3214626
0.61989939 -6.1665649 -0.37771627
0.93541098 -7.6297407 -0.2104688
0.89581466 -6.0710735 -0.38537839
1.361001 -8.1680145 -0.43391362
1.6676064 -8.1441584 -0.2558786
0.054218195 -7.6042976 -0.40001503
-0.95222276 -6.7683191 -0.28725442
-0.57051671 -5.0917044 -0.39237782
1.827318 -7.6177359 -0.23158571
0.6107704 -7.6562662 -0.21851543
-0.5413413 -5.2413702 -0.26324883
-3.2719429 -1.1826508 -0.23605022
-1.4942353 -6.9496226 -0.33804324
-1.0760722 -6.8757682 -0.32724854
-0.59835601 -5.2307596 -0.25639036
0.74677086 -7.6765404 -0.2261202
0.83330607 -7.4951453 -0.20792481
0.54673123 -6.7105179 -0.33451441
1.9907587 -6.165946 -0.18002048
1.5723182 -4.8191071 -0.27890769
-1.6446635 -7.0267344 -0.22357777
-0.91570514 -7.388154 -0.4070169
-0.73495609 -7.3902578 -0.41153589
0.50598216 -6.4061565 -0.30899015
0.86436665 -7.5151215 -0.23463079
0.85969448 -7.4651408 -0.29003474
1.4901776 -7.5729127 -0.31856772
1.9810381 -7.5854707 -0.33485207
-1.579576 -6.953207 -0.30954662
1.688194 -6.2675996 -0.22900084
-0.8235333 -6.6128988 -0.26123878
0.41763186 -3.8770142 -0.34665719
1.88253 -8.2449627 -0.41912583
-1.4361979 -7.5299463 -0.1888971
-0.91083574 -7.2377472 -0.40001634
-0.92121542 -7.6054974 -0.20429882
-0.67014402 -5.2605524 -0.26784256
0.56455743 -6.4749651 -0.32429644
1.0047704 -7.5241337 -0.24756023
0.87359786 -6.3992605 -0.32711616
1.2399148 -7.5532694 -0.26039901
1.1692086 -3.9956431 -0.27580115
1.5734148 -4.7721405 -0.30412218
-1.2769029 -6.7874808 -0.37370411
-0.65294099 -6.8787169 -0.39634243
-1.573817 -7.0030737 -0.32357374
0.65768963 -7.6233807 -0.28982857
1.9227815 -6.6850724 -0.20446363
2.0184665 -7.5871639 -0.41281715
1.2838674 -8.2599659 -0.43604365
1.5304766 -8.2281523 -0.44297281
0.44631535 -3.8770888 -0.31804863
1.7784034 -7.5629168 -0.36883846
0.40865797 -7.6606588 -0.43742242
-0.75709641 -5.2578316 -0.28260496
0.51962525 -3.8357909 -0.31382003
0.41599718 -3.877445 -0.31687537
-0.65100431 -6.6263618 -0.25701442
-0.70110226 -7.4654446 -0.32128599
0.65477532 -7.6004004 -0.31733069
1.9192439 -6.6767735 -0.2326692
-0.93856299 -6.1847491 -0.27029034
-1.9872903 -6.166285 -0.27390596
0.80657125 -7.4804974 -0.40295354
-0.18791366 -8.2492456 -0.44785348
1.3518312 -8.2214308 -0.4902865
1.8223059 -8.0470676 -0.4892458
-0.91765141 -8.2770357 -0.43207517
-0.9932062 -7.4963012 -0.42491165
-0.69946653 -7.1313105 -0.37961546
0.60533965 -7.6698036 -0.25960597
0.60323989 -6.2182589 -0.31115755
0.77156365 -6.1433811 -0.31114385
0.9350909 -7.6370478 -0.27147618
1.0763649 -6.0004511 -0.3121005
1.4758071 -8.1041393 -0.35117289
1.7900101 -7.9064226 -0.34655526
1.8824526 -4.9115777 -0.232986
-1.1865045 -7.3328524 -0.40952531
-0.99966693 -7.422061 -0.4306784
-0.86320543 -7.0648241 -0.38511601
0.91457546 -8.2922869 -0.23166505
0.7954154 -7.6437769 -0.20887992
0.71317017 -6.1557488 -0.35236338
1.1624228 -8.287076 -0.19721529
0.94801915 -6.0990148 -0.36347374
1.5257615 -8.1809359 -0.4061071
1.7605778 -8.0846052 -0.41239133
-0.56829774 -6.3331871 -0.32706597
-0.58684719 -7.3300505 -0.21270093
-0.2762599 -7.5718045 -0.25847378
1.5345461 -4.3202529 -0.18418279
1.617986 -7.5955191 -0.40533498
1.8593416 -4.8523793 -0.38047037
1.8254874 -7.6148052 -0.23094413
2.0528491 -7.3690419 -0.42136315
1.4428818 -4.145865 -0.32472816
1.7790077 -4.8016334 -0.42080215
-0.61520505 -5.2440801 -0.31245962
0.52016139 -5.0527921 -0.35906747
-1.3094777 -6.6610179 -0.60290051
-0.47417304 -5.1396241 -0.39246091
-0.76593256 -5.0619583 -0.37579462
0.99048603 -3.9816589 -0.27053723
2.2350981 -3.214139 -0.19397071
1.2953174 -3.9851069 -0.42103031
-0.65151334 -5.0536327 -0.38047889
-0.76621795 -5.0843606 -0.37613919
1.8941958 -4.802485 -0.31294587
0.77394366 -6.5300889 -0.41073814
1.0537384 -6.4169025 -0.41792014
1.6438291 -8.2567835 -0.29651764
1.4413595 -4.1417499 -0.28452292
-0.74710774 -5.267714 -0.26337156
1.8505077 -4.866087 -0.39122227
1.053091 -5.3229713 -0.38173679
2.0658379 -7.6032472 -0.31022289
1.3200512 -8.2795181 -0.33097509
-0.52807045 -5.1592011 -0.34656402
0.93189716 -6.6682515 -0.40273741
1.7620525 -8.2372007 -0.28589681
2.6542888 -7.6954951 -0.29855052
-1.0293573 -6.9564991 -0.30969587
-1.3302448 -7.0900908 -0.32370701
1.811806 -4.8559847 -0.41016451
-0.72288013 -5.2480335 -0.29587016
1.938812 -7.6299706 -0.29566821
-0.26538926 -5.1564031 -0.355032
-0.67522198 -5.2497087 -0.33813414
-1.1749563 -7.4320965 -0.41894224
-1.6047642 -7.0648355 -0.36921015
0.57355994 -3.848259 -0.3515301
-0.69325519 -5.1052332 -0.38888851
1.9228036 -4.7680483 -0.31209376
0.72220302 -6.5264454 -0.41506484
1.5344121 -8.2609463 -0.30602327
1.7307537 -8.2407846 -0.31403807
-1.2771293 -7.418098 -0.40219465
0.49845642 -3.877862 -0.33529857
0.63023382 -7.5903716 -0.34811178
0.48360139 -7.4081783 -0.32423159
-1.0407045 -7.2220726 -0.3103278
-1.3758436 -7.1604619 -0.31004229
-1.6175404 -7.0853562 -0.3072764
1.9457937 -6.7052836 -0.26611462
-0.56013173 -5.2285514 -0.24230984
-1.4989529 -7.5410652 -0.20820799
-1.0210524 -7.3201194 -0.45092598
-1.249167 -6.9090071 -0.38021144
-1.0703013 -6.7907519 -0.25388905
0.55472302 -6.1924767 -0.37318406
0.97324717 -8.1781063 -0.40466502
0.94786716 -7.6301641 -0.20672688
0.91035163 -6.0877395 -0.38546678
1.3431343 -8.1845789 -0.4295074
1.6092633 -8.079875 -0.43615928
1.8642677 -5.4631338 -0.38537815
1.7845877 -7.5798378 -0.37484041
-1.6031095 -7.0335474 -0.23508373
-0.50012046 -5.1927557 -0.32095757
-3.2747936 -1.0665195 -0.16484067
-1.5565678 -6.9252057 -0.29895905
1.4173172 -4.1623235 -0.37957206
0.88887143 -7.0472879 -0.41256145
1.7248514 -8.265852 -0.2770609
2.7255075 -7.6738644 -0.30000415
-0.59978628 -5.2196856 -0.26256648
-0.71864176 -6.7309122 -0.40058544
-1.4711442 -6.6670361 -0.38319281
-0.62202239 -5.2160101 -0.34363917
0.93690872 -6.6926908 -0.40859869
2.7339525 -7.6789756 -0.31220463
1.5413933 -7.5906534 -0.30275485
1.8627105 -7.5970631 -0.31343052
0.48889303 -3.8933742 -0.54348683
1.5158858 -4.3643875 -0.37895641
2.027945 -7.5779543 -0.33820245
-0.67061758 -6.8642058 -0.35152224
-1.5275413 -7.5508337 -0.20113012
-1.0254514 -7.4015174 -0.45635191
-1.231877 -6.9748282 -0.38416597
-0.90104979 -7.4085908 -0.46295193
0.49864936 -6.219944 -0.37037668
0.94416142 -7.6412826 -0.2035366
0.803424 -6.1153021 -0.37900028
1.2734079 -8.2469692 -0.42719486
1.052865 -6.0234389 -0.38649735
1.5839663 -8.1480017 -0.43778613
1.8535011 -8.1382294 -0.30611393
1.8991137 -4.9489455 -0.32232305
-1.2717476 -6.9955211 -0.39191917
-0.71948481 -7.0632224 -0.41042247
-0.48472643 -7.0094409 -0.41089979
1.980185 -7.6312432 -0.22697023
-1.0790993 -6.8532457 -0.3953158
-1.48057 -6.9465952 -0.39558116
-1.5392619 -7.1465793 -0.23573247
-0.68130064 -6.9991069 -0.29679933
-0.70522034 -7.5351129 -0.20423439
-0.70074236 -6.5785046 -0.32941017
0.98185432 -5.7845225 -0.36507502
1.1927029 -3.9755588 -0.33670601
1.4069217 -7.9504037 -0.39516637
1.8138376 -7.624825 -0.25339255
1.7598649 -4.5983844 -0.3091692
2.1085272 -7.5930138 -0.27356657
1.8534429 -4.7612619 -0.37312588
-1.8111166 -6.1644268 -0.30365762
-1.348489 -6.0822115 -0.31474873
2.173528 -7.5938368 -0.30573425
1.4259217 -8.2594404 -0.32285675
-3.2973783 -1.1590869 -0.15826944
0.35280347 -3.9775641 -0.31766728
0.82043624 -7.4891472 -0.31999937
1.8252971 -7.6253281 -0.37137809
2.1293499 -7.5916252 -0.3814874
1.8095787 -7.5947008 -0.3942304
1.3359354 -8.2506266 -0.43805912
1.5904973 -8.2395563 -0.44609645
1.8504088 -8.2324553 -0.45491663
-1.0076903 -6.3508239 -0.35550967
-1.2393519 -6.3375664 -0.35022202
0.27994949 -5.5304294 -0.29804447
-0.65019262 -5.2609706 -0.25369075
1.0949087 -7.5090828 -0.29023841
1.4617724 -7.5582561 -0.3063195
1.8076882 -7.5520639 -0.31681708
2.1863012 -7.5778761 -0.33190969
1.5456705 -6.3905463 -0.31297234
2.6253819 -7.6771989 -0.160934
-0.63829327 -6.6332102 -0.25872806
1.8140326 -7.6353712 -0.39965072
0.91980648 -7.9201956 -0.40135708
1.2449436 -8.1052122 -0.42464235
-1.2869107 -7.6055422 -0.41880849
0.40771744 -3.932337 -0.32349816
0.5869385 -3.8533881 -0.31946054
0.34170604 -3.8602386 -0.37203673
1.8468468 -4.70398 -0.34881392
-0.65253258 -6.4327393 -0.36156169
0.5584352 -6.057816 -0.39504793
1.0022576 -5.8957181 -0.40859511
1.2821863 -5.794673 -0.41840544
1.4785187 -8.2657986 -0.32115021
0.77361751 -7.4845524 -0.40410534
1.8269546 -7.5701675 -0.44590345
1.3168123 -8.2300854 -0.4923903
0.95132971 -7.5584316 -0.3800545
1.7335095 -7.6247149 -0.40831712
1.4841099 -8.2340012 -0.46051267
1.7422543 -8.2218542 -0.46652237
1.5141563 -4.0282354 -0.28811392
1.0630999 -3.953455 -0.25520739
1.8591397 -4.713717 -0.22801599
0.94247079 -6.0998659 -0.32227215
1.2243521 -5.9670434 -0.32326528
-1.0284728 -6.8808599 -0.39438733
1.8315425 -4.8043466 -0.29634359
1.7183084 -7.6222081 -0.20865217
2.0554643 -7.5961642 -0.21829143
1.6738472 -8.1916847 -0.25733855
-0.6856389 -7.1265712 -0.36431172
1.7256346 -6.7134595 -0.39130399
-0.74111497 -5.2147698 -0.29730609
0.52490258 -3.8792076 -0.25948831
-1.2424586 -7.4357324 -0.41862038
0.74574924 -4.9506512 -0.2918711
1.4703553 -4.1121759 -0.25930247
1.694814 -6.763824 -0.33054861
1.9268034 -6.3726902 -0.30574843
2.6783793 -7.6964493 -0.16267595
-1.1148543 -7.2310534 -0.37060907
0.89102197 -7.3093004 -0.43691686
1.7747276 -7.5733175 -0.28923967
-1.0724919 -6.1365499 -0.33513144
-1.6499445 -6.2625942 -0.35091797
-1.274781 -6.1127906 -0.33077243
-0.71489072 -5.2574086 -0.21689782
1.0101898 -3.9571252 -0.28258041
-1.0599477 -7.6064978 -0.36619309
-0.31819344 -7.6207523 -0.38879243
0.78229523 -7.4884291 -0.36584416
2.0185628 -7.5785055 -0.41293398
1.2497187 -8.0324297 -0.43453994
1.4635539 -7.9668083 -0.43431261
1.6970072 -7.9404945 -0.43884268
0.95922518 -8.1046143 -0.44598499
-1.6507552 -6.939229 -0.3241196
-0.97270113 -7.4250569 -0.40890077
-0.79297972 -7.3975687 -0.40896836
0.84630001 -7.5579805 -0.23837027
0.63536501 -5.0185118 -0.28490719
1.0821644 -7.5629835 -0.2493408
1.7293795 -7.6705642 -0.29306814
-0.57939458 -7.5092525 -0.17242852
0.55144989 -6.1769242 -0.29597518
0.9059056 -7.9747376 -0.29239818
0.78514159 -7.6307716 -0.24885514
0.97747838 -5.9661527 -0.29889491
1.2477299 -5.802846 -0.29899237
1.529529 -8.0376205 -0.33441749
1.8676323 -4.8260579 -0.23368755
0.94150257 -7.5820074 -0.41474691
-1.0740657 -8.0293722 -0.39911756
-0.38684702 -7.9607897 -0.40970221
-1.3229936 -7.4039111 -0.52261412
-1.0820198 -7.3097644 -0.39114437
-0.83957642 -7.4319854 -0.41634205
-0.84702086 -7.297842 -0.39555821
0.40074205 -5.0234857 -0.28174105
0.72015715 -7.5833654 -0.24406442
0.97359657 -6.1393952 -0.30834165
1.2966409 -8.2755079 -0.20512983
1.1247938 -6.0910091 -0.31173971
1.6733081 -8.1138897 -0.35044506
1.8793554 -4.8805666 -0.20725718
-1.4963074 -7.5440488 -0.22947714
-1.1742356 -6.9609547 -0.41109887
-1.1143937 -7.3297653 -0.21937886
-1.0034444 -6.7983294 -0.1622307
-1.0001209 -6.5831165 -0.36086729
0.5310387 -6.2008758 -0.39241716
0.97535008 -8.1893606 -0.42938676
0.95228106 -7.6402683 -0.23003706
0.91215616 -6.0802045 -0.40417567
1.3459399 -8.1906042 -0.4538925
1.6168449 -8.0896559 -0.46124986
-0.30463505 -7.5844684 -0.19256637
0.50681078 -6.1359391 -0.28997734
0.72640359 -6.0398092 -0.29263946
1.0257004 -5.8663282 -0.29235181
1.2417785 -5.7120132 -0.28977105
1.2761244 -8.1258745 -0.32879636
1.8754677 -4.8362856 -0.23943016
1.5196275 -7.9686756 -0.32602021
2.2628651 -7.5498924 -0.32893154
2.3975544 -7.4965487 -0.33257899
-0.55355608 -5.2349682 -0.2374675
-0.78176594 -5.0250168 -0.37516865
1.8802016 -4.7418323 -0.30844399
0.64229608 -6.4939303 -0.40278843
0.96462607 -6.3836842 -0.41252115
2.602349 -7.6863284 -0.30313036
1.4555142 -8.2713108 -0.2903001
1.6673086 -8.2765188 -0.30137929
-0.94818878 -6.2932844 -0.24597511
-0.93019247 -7.4418125 -0.39848778
-0.62906194 -7.2129745 -0.37509724
0.50334752 -6.1971998 -0.28509149
0.70236123 -6.1034951 -0.28605393
0.86780155 -7.5672126 -0.23963508
0.99573314 -5.970017 -0.28783199
1.3870724 -8.0309172 -0.32100448
1.4194239 -4.1089239 -0.24145469
1.6889876 -7.8493457 -0.31787798
1.8685271 -4.8246517 -0.20966616
-1.2342935 -7.0783606 -0.40052179
-0.60587883 -7.1160746 -0.41636208
-0.54582715 -5.2367101 -0.21603861
-0.71300673 -7.0505128 -0.37023571
-0.48242831 -7.0492969 -0.37293532
-1.3534112 -7.6481686 -0.52491736
1.7575829 -4.6538591 -0.41838565
1.8965619 -6.8435817 -0.43661752
2.6591938 -7.7016268 -0.28153846
0.98876119 -7.5982323 -0.43055502
1.5489771 -7.7280493 -0.46068314
1.9981959 -7.578166 -0.46073702
-0.84146452 -7.8130932 -0.40306237
-0.11734462 -7.8958941 -0.42915824
1.3281753 -7.8119869 -0.46198085
-1.4109769 -6.8662987 -0.30495724
-1.1513342 -7.3853946 -0.51129889
-0.75899166 -7.4289355 -0.40471116
0.55682075 -6.3964014 -0.30383268
0.51316035 -5.0562587 -0.27952936
0.88607764 -7.506938 -0.22641084
1.0957847 -7.5502515 -0.2409223
-1.2045879 -7.1228342 -0.40392032
-0.68595123 -7.2191315 -0.4238061
-1.6244653 -7.0484695 -0.23543337
0.33862081 -3.9876962 -0.29580185
0.58616531 -3.8630757 -0.29759547
-1.6039922 -6.9372663 -0.38979456
0.40474162 -7.6381402 -0.31034312
-1.0194188 -7.5955939 -0.30722985
-1.2091279 -7.578342 -0.3069807
-1.5303189 -7.1518006 -0.27049783
1.7503053 -7.5781207 -0.3121396
1.9009691 -7.5423532 -0.31537959
1.5031815 -6.0280056 -0.40077391
-1.0375241 -6.3351111 -0.36128339
-1.2730343 -6.3390403 -0.35957107
-0.65805238 -5.234695 -0.21171167
0.94841099 -6.0563655 -0.32452646
1.3487868 -5.8866463 -0.32972303
2.7410841 -7.6718416 -0.21836486
1.4158471 -4.1183209 -0.36016122
1.8557599 -4.7574701 -0.20613709
1.5469935 -6.0412378 -0.32298306
-0.080356598 -7.9135036 -0.46231726
1.1099169 -7.7817116 -0.48389772
1.3859971 -7.8299007 -0.49749878
-1.4034346 -7.2502127 -0.31382069
-1.070843 -7.192996 -0.29985324
-1.3814988 -7.146225 -0.30070379
-1.6285827 -7.0972257 -0.30092362
-0.6671598 -6.9729853 -0.28178981
0.95495486 -7.5734797 -0.35708204
-1.0479074 -6.3708711 -0.35553196
-1.2772863 -6.3305726 -0.34807685
-1.4735229 -6.255218 -0.36901668
-0.74523807 -6.3217139 -0.38908461
1.9719584 -7.5743628 -0.34252277
1.4609478 -8.2388258 -0.39503267
1.761472 -8.0526571 -0.38369873
0.44992042 -3.9481697 -0.30915245
0.60781765 -5.0232749 -0.2829853
1.8727226 -4.740551 -0.22416809
1.0315242 -6.1454 -0.33390597
1.3751655 -5.9770088 -0.33189419
1.8657188 -4.7036533 -0.38236979
-0.73109174 -5.2648726 -0.28431895
1.7677221 -4.8330507 -0.38877562
1.8600416 -7.5569353 -0.28908637
2.1007466 -7.5721684 -0.30080798
0.31789851 -3.8896482 -0.28303888
0.79173112 -7.506485 -0.33554271
1.4650447 -8.2390575 -0.42776266
1.8344791 -8.2209063 -0.43828109
1.8647289 -7.5555444 -0.3457208
2.0710692 -7.5706849 -0.35287824
1.4128394 -8.2303467 -0.39894643
1.7701869 -8.1688557 -0.40213445
1.7838117 -8.2057171 -0.5014832
1.8454044 -7.5610785 -0.43564418
-1.4708802 -6.8669238 -0.25821301
-0.60362113 -5.2263856 -0.36790803
0.43626738 -4.9829645 -0.37798861
2.3439851 -3.2269068 -0.42367104
2.7053618 -7.6836715 -0.32098022
-1.190078 -6.0919085 -0.27356181
-1.3799405 -6.083024 -0.27432689
-1.156589 -7.264473 -0.42435065
1.8071517 -7.5690188 -0.35086653
-1.5094775 -7.5189538 -0.27106789
-1.6035753 -7.0885625 -0.22538707
-0.64957762 -5.217001 -0.29302666
1.8431499 -6.184104 -0.25719693
2.1934438 -3.2040117 -0.174153
-0.67958927 -5.0958424 -0.36047617
0.75615072 -6.6191635 -0.40961817
1.1036677 -6.4805703 -0.41881767
1.5331655 -7.6485333 -0.24251643
2.5826402 -7.6699815 -0.3028678
1.6817727 -8.2568989 -0.30203453
0.77194238 -4.9438329 -0.30243757
1.8838089 -6.7130384 -0.34176627
2.6242225 -7.6731319 -0.15740624
1.7268389 -7.5835562 -0.31811121
-0.73296386 -5.2502012 -0.23199365
0.41723466 -3.8588986 -0.34222892
2.0901048 -7.5936904 -0.37115684
1.6169665 -8.2456036 -0.40342692
1.8706601 -8.2270622 -0.41118684
-1.5761303 -6.7334795 -0.42626849
-0.46131086 -5.0902987 -0.37493595
1.4037867 -4.0953445 -0.35166815
1.8638954 -4.7374191 -0.20373252
1.4299011 -6.0440412 -0.31194642
1.7204032 -6.0658951 -0.33110157
-1.5620443 -6.7542968 -0.62702727
2.0474687 -7.5747046 -0.36061975
-1.5530511 -6.9497743 -0.30467024
-1.026086 -6.777596 -0.27285668
1.7255819 -6.3562393 -0.23736075
-5.3697228 -2.7471623 -0.58470678
0.40321326 -3.8344922 -0.37255028
1.4583871 -4.1484098 -0.25212124
0.64804053 -6.079164 -0.39373234
0.94315124 -5.9819837 -0.4035112
2.6276529 -7.6610317 -0.31455031
1.5236394 -8.2592583 -0.30393746
0.61245877 -7.6159406 -0.34314725
-1.0469818 -7.1612635 -0.29432532
-1.3349622 -7.1380901 -0.29763523
-1.6090437 -7.0690241 -0.29621276
1.8924127 -6.7297878 -0.26041737
-1.6651306 -6.9523921 -0.35634878
-1.5700071 -7.5333781 -0.1955702
-1.2234805 -7.608532 -0.2090396
-0.88058579 -7.4207335 -0.43807819
-0.84772021 -7.6202626 -0.21695343
-0.7001316 -5.2690754 -0.27937976
0.51490003 -6.4426737 -0.33294126
0.65946263 -7.6487489 -0.26375487
0.88688534 -7.5051117 -0.2558445
1.092123 -7.5404682 -0.26859275
2.2082083 -3.1526103 -0.40112677
1.2025821 -3.9539635 -0.36964777
-0.6112802 -5.1398726 -0.35288611
0.78493237 -6.6984453 -0.40401772
2.6672518 -7.6704044 -0.29505196
1.6696169 -8.2538242 -0.28649917
-0.70485735 -7.0512872 -0.28025904
-1.0431943 -7.7012668 -0.32691649
0.48664713 -3.8742201 -0.50384212
1.4063201 -4.1792774 -0.30768362
1.0923319 -7.5221233 -0.29031673
1.5788155 -7.5809059 -0.312951
1.8183422 -7.5837717 -0.32193545
2.1718168 -7.5738449 -0.33425727
2.0099933 -7.6389618 -0.27619901
-0.68577194 -5.2548165 -0.2237688
-0.60898399 -7.6186996 -0.43859282
2.2311127 -3.2069836 -0.22262731
0.58788705 -3.8424788 -0.25411597
1.8533366 -4.8414478 -0.34982136
0.82437301 -6.1075287 -0.40896085
1.3895204 -5.8891764 -0.42582944
2.6179965 -7.6751642 -0.33809856
1.6665871 -8.2690945 -0.33696333
-0.4649131 -5.1123991 -0.38157311
-1.0201644 -6.6259522 -0.39045551
-1.5049096 -6.9032712 -0.38750014
1.8433824 -4.8660851 -0.33215907
0.68744612 -6.1063271 -0.37372866
0.84020996 -6.0631819 -0.37952545
1.3316054 -5.828651 -0.38981918
-0.92817283 -6.5618176 -0.32747629
2.1662011 -7.6080766 -0.25356439
1.4445281 -8.2678108 -0.2672843
0.66681057 -7.5929451 -0.31074604
-1.0242298 -7.2175941 -0.27213767
-1.1439382 -7.1594901 -0.26745012
-1.3647172 -7.1428576 -0.27047697
-1.6436673 -7.090486 -0.27152839
1.7674923 -7.5624352 -0.31004676
-1.0147637 -6.3614769 -0.36341104
-1.2452804 -6.3356619 -0.35751328
-0.75367761 -5.2657871 -0.21314785
0.04709626 -7.6075191 -0.39487854
-0.99563915 -6.6811733 -0.43705872
-1.343456 -6.9684291 -0.34767237
-0.98871255 -6.9727931 -0.35554472
-0.61620164 -7.0241208 -0.36863986
0.87789702 -7.6925497 -0.33294055
1.9476926 -7.5912428 -0.346109
1.4773443 -8.2356949 -0.39836857
1.8583248 -8.2162256 -0.40463796
-1.4812431 -6.324482 -0.36568835
-0.86837053 -6.3735456 -0.38041642
-0.69111818 -5.2413597 -0.29930183
-0.94189012 -6.7752476 -0.26954815
-1.6101563 -6.732913 -0.59187126
-0.5640865 -5.1167135 -0.37790444
1.7118608 -5.9992671 -0.2364358
1.5965587 -6.0536442 -0.23951998
0.67718309 -7.6360221 -0.35218993
-1.3842046 -7.2012458 -0.31151775
-1.0593287 -7.1722813 -0.30141428
-1.3709168 -7.127912 -0.30233422
-1.6204678 -7.0788226 -0.30240545
1.9423971 -6.6882992 -0.2642152
1.8967071 -6.1301117 -0.19565609
-1.0226175 -6.3441515 -0.24606958
-1.3161755 -6.3192525 -0.24876502
1.5914588 -5.9648328 -0.2133055
-1.5238628 -7.1766768 -0.23117003
1.8178437 -4.7572374 -0.30452177
1.7297275 -7.6142511 -0.23767039
2.050142 -7.5788841 -0.24614391
1.670367 -7.9173355 -0.26292202
1.5776374 -7.7749777 -0.44600788
-0.18432975 -7.8619566 -0.40142122
0.90330672 -8.0796776 -0.45328346
2.1975212 -3.2180867 -0.21982619
1.8406987 -4.7022557 -0.33174047
1.1438417 -6.0274529 -0.41767898
1.3528833 -5.9387274 -0.42387858
1.5654731 -6.6088605 -0.41336349
1.8529458 -6.3306675 -0.41129234
2.7951436 -7.6649871 -0.32173404
-0.64461327 -6.8262568 -0.37174407
0.8756485 -6.5391212 -0.35109857
2.6288991 -7.6958938 -0.20336488
-1.2930305 -6.9632583 -0.33327129
0.38379189 -6.9833875 -0.3775076
-0.82227254 -5.223031 -0.2975935
-0.61649036 -5.0645914 -0.36203852
1.9666572 -4.7491198 -0.31447878
0.68713808 -6.5384912 -0.40639248
1.0837126 -6.3716903 -0.41671029
1.5913343 -7.6288471 -0.26335767
2.6376214 -7.661232 -0.32696894
1.560359 -8.256402 -0.31537512
1.7676673 -8.2643652 -0.32747152
-0.93706113 -6.2935171 -0.25468174
-0.70394611 -7.0718517 -0.34167805
-1.1188929 -7.2934275 -0.35564402
-1.0755056 -6.886672 -0.38192794
0.93632507 -8.2492504 -0.46400693
1.7749343 -8.1912174 -0.48338357
-0.83501816 -8.2728472 -0.42157403
-1.4083245 -7.0238595 -0.30206743
-1.5343155 -6.9557519 -0.29674336
-1.0208694 -6.7914753 -0.26697585
1.7843202 -6.3731656 -0.23696515
-0.51697922 -5.0762701 -0.25927207
-5.3258643 -2.748713 -0.5712142
0.52775294 -7.6331091 -0.29809442
0.53638726 -3.8311291 -0.29981878
1.7668848 -7.5873718 -0.33635464
0.47892004 -7.6488934 -0.29835907
-1.5358677 -7.5270939 -0.24663767
-1.5846021 -6.8652086 -0.17680028
-0.67259759 -5.2397251 -0.26729384
0.43976042 -3.8541312 -0.30013898
0.6799221 -5.0375724 -0.38455239
1.8143473 -6.1562858 -0.40164676
1.7091923 -6.580102 -0.43762651
2.621314 -7.6594429 -0.31609079
1.8989279 -7.5780158 -0.41184869
0.31871957 -3.9928305 -0.26394203
0.1712938 -8.2524204 -0.22217563
0.42964172 -7.5864091 -0.44534639
1.0933456 -3.9894598 -0.31090966
0.65899432 -7.6352081 -0.33008155
0.58857822 -7.5759606 -0.3221446
-1.4188094 -7.2029939 -0.29123375
-1.1576546 -7.1770949 -0.28235492
-1.4064336 -7.1335139 -0.28269461
-1.6545225 -7.0853581 -0.2832776
-0.97098356 -6.2482157 -0.25231394
-0.98234415 -6.5685873 -0.30196759
1.8737462 -6.6684494 -0.32079479
0.55574638 -7.6225014 -0.33437923
0.35082066 -7.6458621 -0.33597162
1.8807346 -6.663816 -0.24500909
-0.57945746 -5.2394829 -0.24697599
0.44753847 -7.7000713 -0.43412247
0.4857274 -6.076169 -0.23814783
-0.96253669 -6.1816497 -0.25504503
1.0705132 -3.9506693 -0.18827859
1.3864739 -4.1894913 -0.29456118
-0.69479775 -5.0849767 -0.31367782
1.1057918 -7.5288081 -0.28337768
1.4701736 -7.5677848 -0.29682317
1.8311288 -7.5782962 -0.3079212
2.2017872 -7.5888467 -0.31968954
1.4736288 -6.0478015 -0.33247378
2.7518394 -7.6860728 -0.20302752
-0.51464003 -5.2064519 -0.31626275
0.76725698 -7.5201468 -0.41153589
1.8079011 -7.5776191 -0.44690672
