# .PCD v0.7 - Point Cloud Data file format
VERSION 0.7
FIELDS x y z
SIZE 4 4 4
TYPE F F F
COUNT 1 1 1
WIDTH 1448
HEIGHT 1
VIEWPOINT 0 0 0 1 0 0 0
POINTS 1448
DATA ascii
-1.7296973 -0.44907421 -1.256791
-1.2610487 0.45021966 1.5812889
-1.2235906 0.41033915 1.0389891
-1.191013 0.42781642 -1.3299435
-1.2540147 0.28127041 1.3672338
-1.2207936 0.18426174 1.0409935
-1.1836108 0.20929183 -1.3513656
-1.1822768 0.31396028 -1.6883206
-1.2120194 -0.19975911 1.0318296
-1.1775775 -0.21982493 -1.3256023
-1.2071675 -0.42049474 1.0175889
-1.1799161 -0.43864384 -1.3283354
-1.5432843 0.44917727 1.0691549
-1.459094 0.46459666 -1.3617499
-1.490142 0.19194631 1.4182218
-1.41782 0.19280487 1.0645642
-1.4273622 0.23303246 -1.3778476
-1.4046459 -0.23709512 0.98587805
-1.4031487 -0.26558572 -1.2894461
-1.5216643 -0.49687079 1.5223317
-1.5057579 -0.46120319 1.0950172
-1.4638282 -0.47663274 -1.2639312
-1.248881 -0.14105964 1.4036324
-1.1973069 -0.30833012 1.0419972
-1.226136 -0.1646475 -1.4409385
-1.2121265 -0.42908078 1.0664487
-1.2422061 -0.44640625 -1.3144877
-1.4900688 -0.30898398 1.4278539
-1.4781771 -0.20496587 0.99860919
-1.4371721 -0.21686138 -1.3068023
-1.5156811 -0.47882926 1.4249718
-1.5342537 -0.46396586 1.0640897
-1.3453602 -0.51046592 -1.3801382
-1.6291032 -0.13268536 -1.726615
-1.1986282 -0.09976092 -1.4201546
-1.6284668 0.10949585 1.0153275
-1.2667117 0.1364781 1.0267477
-1.2470756 0.15160596 1.2816811
-1.1522844 -0.21746309 -1.5839877
-1.2135348 -0.22097303 -1.3557968
-1.5177615 -0.25187826 0.99504519
-1.266083 -0.2409912 0.99000597
-1.1571276 0.38417479 -1.3804469
-1.1702489 0.035785392 -1.4637759
-1.6724484 0.080135614 1.0247803
-1.2128971 -0.068743244 0.99740601
-1.1759994 -0.20645526 -1.4750316
-1.5289755 -0.24534202 0.99642563
-1.2831273 -0.23635034 0.99568701
-1.5951967 -0.10700646 1.0041933
-1.6719445 -0.28838098 1.0054474
-1.5155661 0.076416671 0.9981122
-1.2041359 0.09817484 1.0054116
-1.1994157 -0.085167855 0.99078465
-1.1887827 -0.26754999 1.0209537
-1.6485852 0.24555916 0.99229527
-1.5963991 0.011450768 1.0005026
-1.5581181 -0.28323597 0.99596262
-1.2220306 0.2793597 0.98618841
-1.1743171 -0.12788069 -1.5274365
-1.1911435 -0.12656549 -1.3796849
-1.249288 0.0036297143 1.0010724
-1.2467362 -0.26973185 0.99837399
-1.5734303 -0.28427768 1.0030518
-1.1494274 -0.23338264 -1.6322827
-1.1299603 -0.23590007 -1.3230214
-1.2892017 -0.27184126 1.0035553
-1.1423373 -0.06565892 -1.5653632
-1.7140613 -0.45227438 -1.2836368
-1.3450623 -0.26905096 -1.229224
-1.707345 -0.64267308 -1.2853715
-1.160975 -0.90088379 -1.3279521
-1.3492706 0.26278371 -1.6468685
-1.3480731 -0.0041380674 -1.6512219
-1.3432516 0.43295771 -1.4686328
-1.3578157 0.36444128 -1.4514567
-1.3532208 0.25965893 -1.4113134
-1.3301793 -0.24055871 -1.3759801
-1.3350345 -0.41051149 -1.5192661
-1.3714603 -0.35507745 -1.3655951
-1.1865076 0.40101606 -1.3265622
-1.180027 0.21010448 -1.3367649
-1.1674806 0.011772901 -1.3315423
-1.1719344 -0.18503985 -1.3464613
-1.1627576 -0.42205709 -1.3399938
-1.2691305 -0.34628844 -1.3148994
-1.1496404 -0.57517153 -1.3571093
-1.5023289 0.59480667 1.0115256
-1.5034472 0.44462723 0.99481654
-1.5065979 0.22678275 1.0074294
-1.4878317 0.0091828704 1.0075464
-1.1986119 0.58844465 1.018681
-1.2333119 0.44309688 1.0094075
-1.2280643 0.204006 0.99703312
-1.2269745 0.016578518 1.0271111
-1.2343405 -0.12574524 1.0186794
-1.1739455 -0.33489108 1.0025883
-1.2605647 -0.41072291 1.002394
-1.1668106 -0.54764926 1.010664
-1.2536132 -0.55326813 1.0025041
-1.2104149 -0.76993293 1.0256891
-1.2513963 -0.99235684 1.0114238
-1.3328378 -0.45834327 -1.7391729
-1.3251165 -0.55853111 -1.7297883
-1.1902601 0.39539987 -1.3576002
-1.357657 0.37711018 -1.379041
-1.237636 0.14802705 -1.5041004
-1.3606064 0.17179482 -1.4039923
-1.210642 -0.33541077 -1.3846201
-1.3183179 -0.34950823 -1.3629887
-1.244236 -0.58253539 -1.4393364
-1.3278666 -0.59188372 -1.3383884
-1.7331119 0.52375799 0.9891541
-1.7204674 0.1515857 1.0008461
-1.5010734 -0.27798867 0.90713835
-1.7344449 -0.29373452 0.98993087
-1.698779 -0.66373903 0.99300408
-1.6893848 -0.89063776 0.99902534
-1.2745699 0.5892483 1.0062125
-1.5074713 0.48410249 1.3141403
-1.2177169 0.15858944 1.0190444
-1.5003288 0.17016344 1.257606
-1.225112 -0.26684758 1.0023599
-1.5081743 -0.37492847 1.4348984
-1.2024323 -0.69373989 1.0043099
-1.5000256 -0.6975807 1.4525175
-1.4988117 -0.94698894 1.4805956
-1.3717191 0.51190907 1.5285425
-1.5144753 0.52296084 1.5931478
-1.4118145 0.18795784 1.5376906
-1.2465914 -0.28290045 -1.5911851
-1.4956013 -0.31257433 -1.3323044
-1.3368272 -0.56112498 -1.4625316
-1.4269549 -0.13314192 0.99140835
-1.3533196 -0.13027011 0.99764085
-1.4212615 -0.32312465 1.2245359
-1.5088636 -0.68141031 1.3128557
-1.5044351 -0.9215278 1.3291297
-1.2455539 -0.287875 1.6208963
-1.2270346 -0.70216119 1.7075157
-1.2115948 0.41722184 1.0684638
-1.1758401 0.4377571 -1.373244
-1.2208567 0.30332363 1.0887344
-1.1574246 0.26952916 -1.3405643
-1.2224963 0.10805393 1.0839441
-1.1657908 0.085807532 -1.3674269
-1.2099754 -0.10589182 1.0731417
-1.1629664 -0.10005268 -1.3619409
-1.2177292 -0.33644131 1.0617412
-1.1525246 -0.28392115 -1.3480667
-1.2012151 -0.43946949 1.0795501
-1.1430831 -0.43855774 -1.3323715
-1.3647015 0.47909287 -1.4285642
-1.370012 0.26772943 -1.4324657
-1.3641188 0.3116248 -1.52738
-1.2827344 0.18820724 1.0222476
-1.3148874 0.093720719 -1.388255
-1.3225746 -0.11612175 1.0119433
-1.3005172 -0.10392463 -1.3170985
-1.381078 -0.29886207 1.0098103
-1.3531094 -0.26745236 -1.2963054
-1.3588277 -0.38736281 -1.4413344
-1.2552873 -0.43790865 1.0090594
-1.3396473 -0.48679438 -1.4146333
-1.5229552 0.49629056 1.6117978
-1.5135186 0.46388966 1.192035
-1.5641899 0.33006003 1.514889
-1.5087498 0.32399917 1.1894546
-1.5090102 0.10292883 1.6128774
-1.5072739 0.088148348 1.1908199
-1.4596572 -0.16516721 1.0158377
-1.5413182 -0.37763196 1.7314743
-1.5408049 -0.3173475 1.1910985
-1.4745878 -0.28325519 0.91695589
-1.5247546 -0.31789744 -1.2703621
-1.5070436 -0.4653765 1.0526147
-1.7431746 -0.34460276 -1.2606282
-1.685315 -0.49542141 1.0009366
-1.7126073 -0.49229947 -1.2554919
-1.2681916 0.52105725 1.7286295
-1.2190435 0.41324431 1.0375044
-1.174903 0.42851448 -1.326331
-1.254287 0.24172641 1.3093632
-1.2198141 0.18496166 1.0400767
-1.1739638 0.21081455 -1.3530673
-1.1874094 0.31599045 -1.6830106
-1.2102259 -0.20477326 1.0324038
-1.1653937 -0.22107573 -1.3223706
-1.202002 -0.4280301 1.0151758
-1.174564 -0.44053409 -1.3147708
-1.4632616 0.54121536 1.7443753
-1.519873 0.46870148 1.3527225
-1.4525656 0.44090888 1.0486283
-1.4364058 0.19459192 1.7303555
-1.4725256 0.21466282 1.280195
-1.3997903 0.18678994 1.0439997
-1.3797991 0.22157691 -1.3791157
-1.5136166 -0.36348435 1.3204474
-1.4078047 -0.24337156 0.98038638
-1.3344897 -0.23669447 -1.2953012
-1.517194 -0.49226502 1.3514324
-1.5049608 -0.47425193 1.1144931
-1.4105685 -0.48535424 -1.3042529
-1.7347229 -0.36988339 -1.2813164
-1.2558744 -0.31536955 1.6572361
-1.2444153 -0.12757082 1.36525
-1.182245 -0.077002078 -1.4683901
-1.2096049 -0.44105318 1.0808966
-1.1653485 -0.45125359 -1.3793107
-1.4879947 -0.27222961 1.7222512
-1.4665338 -0.29064298 1.42655
-1.4752522 -0.19962829 0.98881382
-1.4044797 -0.19725399 -1.3413126
-1.5273986 -0.53639048 1.6951885
-1.5505457 -0.4674868 1.0065867
-1.346971 -0.501544 -1.2938147
-1.704306 -0.48870599 -1.2428105
-1.6763074 -0.53598469 -1.2512367
-1.2116017 0.3546609 0.98228121
-1.1810026 0.46066332 -1.3368829
-1.2246113 0.19118038 0.98070037
-1.1120853 0.13950288 -1.3309288
-1.1936526 -0.025852166 -1.3258933
-1.2029891 -0.45643491 0.98986554
-1.208734 -0.78390229 0.99326587
-1.1992755 -0.95210898 0.99890864
-1.3536682 -0.33813635 -1.2729579
-1.7008474 -0.46518984 -1.2619888
-1.7015245 -0.60961068 -1.258945
-1.230391 0.51801133 1.0045086
-1.1957674 0.45911056 -1.3505454
-1.2247634 0.11185006 1.0190192
-1.1776819 0.026592024 -1.4092659
-1.2814555 -0.13089211 0.97955537
-1.1821275 -0.18669653 -1.3237551
-1.2162633 -0.6191566 1.027089
-1.1810551 -0.83892143 -1.3465315
-1.5550866 0.553074 0.97624075
-1.3816757 0.51492685 -1.3414143
-1.5186834 0.32799983 0.99007809
-1.3707042 0.28079054 -1.3359481
-1.5195518 -0.27929854 0.97912502
-1.3837762 -0.41340077 -1.2723259
-1.3396077 -0.26269689 -1.3328906
-1.5306287 -0.65925699 0.98652935
-1.4333963 -0.64000851 -1.2489733
-1.5397263 -0.88961077 0.98713565
-1.7110386 -0.46556383 -1.288082
-1.7250452 -0.60776281 -1.2746358
-1.5917058 -0.27683085 0.95060658
-1.4321718 -0.4079687 -1.2622392
-1.6010561 -0.18176228 -1.3396778
-1.6791155 -0.63995814 0.98183537
-1.5946331 -0.62192965 -1.2590648
-1.6941769 -0.86138332 0.98072124
-1.2059317 -0.064724416 -1.3795559
-1.6815463 -0.11952792 1.0038009
-1.5127254 0.057596534 1.0245423
-1.6523046 0.055195838 1.1075416
-1.4384437 -0.11249185 0.99176407
-1.7295208 0.47404945 0.98610687
-1.6629624 0.16504191 1.0104818
-1.5856267 -0.11673057 1.0009232
-1.1522976 -0.010751054 -1.4482427
-1.2061337 -0.010023579 -1.3524339
-1.4702853 -0.11339554 1.0021911
-1.5539697 -0.36801428 -1.7122109
-1.1906431 -0.1095214 -1.34165
-1.3105855 -0.10818434 1.0078635
-1.128732 -0.10898244 -1.5882983
-1.2199397 0.59609693 0.97201449
-1.2232091 0.47141343 0.97237593
-1.2710869 -0.012076631 1.0111935
-1.2462659 -0.13084531 0.98002177
-1.2022874 -0.55282003 0.99718565
-1.1625869 -0.994564 1.0005007
-1.5638871 0.085325494 0.98252469
-1.6179614 -0.45179713 0.9841091
-1.6213253 -0.61343676 0.98510021
-1.6209605 -0.777933 0.9878276
-1.6194921 -0.88990659 0.98986083
-1.7086732 0.44574797 0.97500581
-1.7190173 0.23169921 0.97839087
-1.2564015 0.46929252 1.0061646
-1.2453387 0.10831358 1.0093751
-1.2654912 -0.13076535 0.9850722
-1.21191 -0.674272 1.0244737
-1.1786005 -0.92819381 1.0194592
-1.5998337 0.48379189 0.97446185
-1.6029997 0.19096534 0.98385674
-1.494534 -0.31069565 0.98895532
-1.5721393 -0.67598188 0.98742944
-1.5734682 -0.90025175 0.98960131
-1.4916525 -0.25403672 0.94479829
-1.4837677 -0.80416131 0.98962206
-1.4814329 -0.92096096 0.99210149
-1.7065299 -0.34147245 1.2340074
-1.2217293 0.46391162 0.98965406
-1.2233939 0.37572572 -1.363676
-1.3154607 0.12325985 0.98691487
-1.1740317 0.13593113 -1.3712399
-1.2215199 -0.17630087 0.96921873
-1.2085423 -0.63475513 0.997347
-1.6133804 0.49293008 -1.3496103
-1.6662488 0.11225524 -1.3578553
-1.5842576 -0.38585967 -1.2751004
-1.5088515 -0.22056684 -1.3148116
-1.5945654 -0.55330026 -1.2710057
-1.5015545 -0.34491485 0.94088411
-1.2898593 -0.22250956 -1.2251871
-1.185998 -0.63838035 1.0258125
-1.1846466 -0.77630913 -1.3306382
-1.6503391 -0.38118348 -1.2392595
-1.7197456 -0.21607016 -1.3092276
-1.6685982 -0.67232406 1.0132709
-1.6741385 -0.54500979 -1.2325314
-1.1624525 0.49609476 -1.3302944
-1.269249 -0.20670429 0.98736835
-1.177047 0.4060325 -1.3397446
-1.1629928 0.181701 -1.6747943
-1.1890954 0.06718117 -1.3703768
-1.1821151 -0.17529623 -1.3557489
-1.2537546 -0.20612293 0.99114919
-1.2523248 0.47256076 0.98990655
-1.2188156 0.039613307 0.98812652
-1.2047405 -0.20409229 0.98645663
-1.6657951 -0.19504699 -1.3772478
-1.1576357 -0.31767577 -1.3473933
-1.4825552 -0.21537101 0.98528695
-1.1430771 -0.58876216 -1.3279533
-1.2371881 0.18402222 1.0641184
-1.1732905 0.19787848 0.97978163
-1.2473602 0.062863417 1.0173262
-1.1838515 0.012804143 0.984393
-1.1645575 -0.02343148 -1.3333232
-1.1922567 -0.18905316 0.99302244
-1.1295836 -0.24074003 -1.3437953
-1.2005773 -0.3682813 0.99535263
-1.129499 -0.45209247 -1.3257186
-1.4878163 0.142712 0.99663031
-1.203148 0.15822107 -1.3329499
-1.4773026 0.064515062 1.0042667
-1.4942946 0.0031009838 0.98866522
-1.2606018 -0.009726271 -1.365253
-1.4087079 -0.26651421 0.98150134
-1.2270827 -0.23972988 -1.3498992
-1.4310912 -0.33591619 0.89541525
-1.260074 -0.4545067 -1.3104892
-1.3803388 0.18202236 -1.3394716
-1.4195788 -0.019369073 -1.339856
-1.5645548 -0.23658077 -1.3356133
-1.3791708 -0.42222482 -1.2718335
-1.2382913 0.37168825 1.5117689
-1.1891586 0.26448691 -1.3714308
-1.2286596 0.23088747 1.3335581
-1.3386126 0.10343724 1.0119076
-1.2010474 0.08496841 -1.3756591
-1.1961225 0.16892186 -1.6670747
-1.3380873 -0.2614308 0.97092545
-1.197948 -0.34898537 -1.3234197
-1.2019711 -0.54395556 -1.3902513
-1.7029794 0.085457511 0.99480236
-1.5774432 0.095469706 -1.3467281
-1.7489933 -0.24943128 0.98422253
-1.5169799 -0.31623322 -1.3081015
-1.3861583 -0.28829679 1.2835991
-1.3460895 -0.28408164 1.0016961
-1.2763922 -0.26767039 -1.3202777
-1.2685883 -0.33257571 -1.6284422
-1.7222931 -0.3133125 1.0215076
-1.5426787 -0.38254574 -1.3394071
-1.2191573 0.18362358 1.0303955
-1.2053416 0.211521 -1.3099749
-1.2265263 0.035967745 1.0309587
-1.2106185 0.052076571 -1.31604
-1.2088519 -0.15008405 1.0323781
-1.1642869 -0.14249197 -1.3389658
-1.1786556 -0.3210392 1.0260746
-1.2355535 -0.32256323 -1.3325759
-1.5047944 0.3475959 1.4247154
-1.5062892 0.23826355 1.4560244
-1.493535 0.24703562 1.2265534
-1.496994 0.2555384 1.0466881
-1.3650589 0.31712654 -1.3831726
-1.5065391 0.016488329 1.5479981
-1.4913679 0.051356733 1.2476087
-1.4299147 -0.29674369 1.0238417
-1.471343 -0.32272166 0.92216116
-1.3900687 -0.34112051 -1.2596883
-1.6521101 -0.22455779 1.0077425
-1.5369086 -0.18609971 -1.3111017
-1.2292936 0.24359941 1.4168439
-1.2251992 0.099158131 1.0275975
-1.1938758 0.15176833 -1.3494108
-1.2343258 -0.22488225 1.0220309
-1.210495 -0.2482008 -1.3135172
-1.5049586 0.35168815 1.4411902
-1.5235088 0.35309279 -1.4518299
-1.5042861 0.079184897 1.590973
-1.5010663 0.15642187 1.361097
-1.5805668 0.14967483 1.0490644
-1.4667521 0.168538 -1.4084848
-1.3509809 0.17668813 -1.6787685
-1.4865236 -0.27261785 0.98535341
-1.3711488 -0.40489882 -1.232501
-1.4129477 -0.24750078 -1.2926209
-1.2256839 -0.20327255 1.3897365
-1.2557089 -0.22017851 1.0215955
-1.2355632 -0.27315325 -1.3885224
-1.2811831 -0.47399849 -1.5308611
-1.5064776 -0.39333349 1.3623633
-1.6140227 -0.28834161 0.99109787
-1.5374061 -0.42427629 -1.2379516
-1.5590148 -0.29271761 -1.3279592
-1.5152106 -0.51064169 1.676596
-1.5092717 -0.50010681 1.4607712
-1.3404677 -0.48114169 -1.5439756
-1.3409196 -0.51082551 -1.6596823
-1.3386381 0.17101987 -1.5766631
-1.3374761 0.10302725 -1.5938146
-1.32815 -0.42467618 -1.538806
-1.3185178 -0.47642833 -1.6435004
-1.3230176 -0.52564681 -1.541332
-1.2019554 0.4365738 -1.3571483
-1.2233187 0.2721402 -1.3369799
-1.1897061 0.059134856 -1.3369845
-1.2052181 -0.15082705 -1.3538636
-1.3088828 -0.15625201 -1.3588977
-1.1634502 -0.33995396 -1.3633692
-1.3073797 -0.3351562 -1.3556197
-1.1894461 -0.54739207 -1.2911873
-1.3259012 -0.53357631 -1.2733759
-1.1350605 0.44683605 -1.34032
-1.1374004 0.26922399 -1.3304303
-1.1314728 0.060158134 -1.3322542
-1.1233274 -0.14533521 -1.3282921
-1.1243789 -0.35574186 -1.3073133
-1.1157837 -0.5325526 -1.3105423
-1.5238873 -0.19275208 0.93388295
-1.4964304 0.33888566 1.0844872
-1.4915496 0.10875653 1.0572693
-1.4168087 -0.18832633 0.98453212
-1.4863247 -0.8020668 1.0584543
-1.26473 0.55494916 0.99191165
-1.1845882 0.3356542 1.0156801
-1.1789895 0.11626236 1.0391228
-1.1743034 -0.031484291 1.0096023
-1.1805842 -0.25125316 1.0183699
-1.1837922 -0.47180921 1.0111549
-1.234742 -0.62982512 1.065377
-1.2311038 -0.85340303 1.0367906
-1.3614392 0.43129486 -1.3353754
-1.2598336 0.17098099 -1.548076
-1.3504463 0.13091925 -1.348331
-1.2102193 -0.27923089 -1.3630422
-1.305355 -0.30067429 -1.3411458
-1.2456018 -0.53280866 -1.4303327
-1.3231463 -0.5267086 -1.3134049
-1.1440264 0.44358426 -1.3559358
-1.1370414 0.16262345 -1.3445051
-1.1285723 -0.25006092 -1.3247629
-1.1243726 -0.49574673 -1.3205186
-1.5814271 0.10303374 0.99451995
-1.5420324 -0.19425784 0.97160316
-1.5620165 -0.57308125 1.0139973
-1.5536757 -0.80318695 1.0238435
-1.3843398 0.63060588 0.98949409
-1.4103591 0.27842766 1.0021112
-1.4958633 0.26950169 1.165313
-1.3506815 -0.18581548 0.99589181
-1.3329965 -0.5433802 1.0320728
-1.2681028 -0.89562172 1.0389049
-1.324672 -0.5077408 -1.7314682
-1.2590785 -0.23908761 -1.5875952
-1.4538242 -0.23374854 -1.3247631
-1.310526 -0.51850748 -1.5481244
-1.3270448 -0.54702115 -1.2844157
-1.1183646 -0.56456649 -1.3326213
-1.417758 -0.14132735 1.0308988
-1.4899616 -0.19765623 1.4277508
-1.5085042 -0.54798472 1.3033946
-1.1890652 -0.95661706 1.2033818
-1.4988925 -0.81724942 1.1548812
-1.2455275 -0.18956912 1.6317627
-1.1611929 -0.73882711 -1.2926875
-1.173213 -0.92602116 -1.2812442
-1.2213798 0.60703671 0.99961138
-1.2239509 0.6036011 0.96151781
-1.2095466 0.23062772 1.0200136
-1.2159576 0.22767568 0.97591066
-1.2301822 -0.14709026 0.98715425
-1.2167253 -0.52213246 1.064647
-1.2086062 -0.5242812 1.0198056
-1.1944633 -0.90902442 1.0983123
-1.201365 -0.90798962 1.0440965
-1.1870804 0.46993995 -1.3604708
-1.1852622 0.09759713 -1.3573028
-1.2898655 -0.052580148 0.9851352
-1.1820669 -0.73889363 -1.3263193
-1.2075877 -0.52359962 1.0764964
-1.1987033 -0.94165421 1.1315858
-1.6503901 -0.046265874 1.0034132
-1.4258881 -0.23000845 -1.2614527
-1.723176 -0.56008047 1.0227832
-1.2537766 0.21419331 1.0627141
-1.1398368 -0.19626854 -1.6646962
-1.2155387 -0.19918633 -1.3386803
-1.2951741 -0.21069667 0.99214983
-1.3090396 0.27437896 -1.7058729
-1.3443108 0.33801705 -1.4393559
-1.3362288 0.1983618 -1.4345508
-1.3381455 0.028501768 -1.5770261
-1.3315895 -0.45162022 -1.4812187
-1.3065996 -0.54960573 -1.4438087
-1.137121 0.35741633 -1.3414216
-1.61496 0.30824539 -1.3254133
-1.1343513 0.20159948 -1.3085675
-1.6087136 0.15318055 -1.3205631
-1.1381788 -0.0088322461 -1.3454176
-1.3231246 -0.0048228949 -1.3319633
-1.5506723 0.073795095 -1.3234515
-1.135416 -0.18837228 -1.3422228
-1.2716577 -0.26196235 -1.267202
-1.1313763 -0.37054026 -1.3382666
-1.2934263 -0.38088918 -1.2601354
-1.114794 -0.55609965 -1.3394079
-1.3242683 -0.56517541 -1.2679985
-1.2486427 -0.01022457 1.0056912
-1.2579892 -0.14796101 1.0032471
-1.2412372 -0.33125269 1.0103674
-1.481668 -0.40449089 0.99136138
-1.2384076 -0.56501442 1.0092695
-1.2060678 -0.70162559 1.0026282
-1.2281222 0.6187827 1.0463803
-1.2120664 0.41544101 1.0888298
-1.4973109 0.37871009 1.0082189
-1.245564 0.23807627 1.036582
-1.4898465 0.17988941 0.99931228
-1.214915 0.053633545 1.0550774
-1.1781955 -0.14421102 1.078819
-1.1831388 -0.32977596 1.0826318
-1.1972833 -0.50091922 1.0543046
-1.1671634 -0.70666122 1.0754309
-1.497915 0.46201202 1.2336957
-1.3210678 0.12068681 -1.5949364
-1.317872 -0.4150303 -1.6633836
-1.3067653 -0.6010434 -1.5965996
-1.2619586 0.35226792 -1.3427328
-1.6802487 0.39962062 -1.3273187
-1.2316926 0.12062103 -1.334442
-1.6340766 0.13807669 -1.3249696
-1.1881738 -0.32973114 -1.316039
-1.2170281 -0.55088037 -1.3215466
-1.2252202 0.54379612 0.99666905
-1.2010815 0.080926806 1.0045837
-1.26266 -0.27038926 1.0043085
-1.727519 -0.43484396 0.99403036
-1.3285291 -0.63480693 1.0066432
-1.7249248 -0.68016654 0.99500775
-1.3723471 0.51056695 1.0664648
-1.3883963 0.14212199 1.1227689
-1.7493761 0.13767163 1.0080426
-1.3144054 -0.29809526 1.0794888
-1.3761206 -0.65377897 1.1246514
-1.4291093 0.55210787 1.5897417
-1.4490824 0.26753062 1.5245161
-1.4865532 -0.39264154 1.6277525
-1.4957788 -0.65221512 1.6313517
-1.2387736 -0.28518096 -1.5861108
-1.6381032 -0.40305355 -1.674425
-1.2713408 -0.32838631 -1.2867289
-1.6902192 -0.33583829 -1.2874911
-1.2679431 -0.57749373 -1.2713766
-1.4712148 -0.61526078 -1.2402997
-1.393899 -0.26547408 0.9578923
-1.3857455 -0.20327261 1.0588094
-1.3249722 -0.28945991 1.4950426
-1.3465874 -0.61689812 1.7482185
-1.1762335 -0.84739953 1.5416529
-1.3295975 0.25499058 -1.6142344
-1.3573925 0.39478064 -1.363446
-1.3550341 0.22261772 -1.3582374
-1.1685481 0.015244991 -1.3657238
-1.3447254 0.061073285 -1.4851038
-1.1836524 -0.16566834 -1.3651063
-1.1412196 -0.31332123 -1.3589025
-1.3300698 -0.44605362 -1.3709363
-1.3200679 -0.54784745 -1.3691832
-1.1436515 0.38218182 -1.3119287
-1.1484466 0.22821379 -1.3118801
-1.1370776 0.016211648 -1.3069704
-1.1332464 -0.16201948 -1.3053786
-1.1329389 -0.37350309 -1.3057278
-1.1341352 -0.53049898 -1.3046794
-1.2471571 0.47964102 1.0189947
-1.5058248 0.49854577 1.0280071
-1.5105131 0.37869537 1.0230144
-1.2446909 0.30883384 1.0176338
-1.4977527 0.25904062 1.0134531
-1.269362 0.084974036 1.0210372
-1.4856117 0.025360126 1.0135113
-1.5038273 0.1429387 1.0294026
-1.2229898 -0.13782793 1.045523
-1.2202992 -0.36182621 1.0367452
-1.2240348 -0.53331649 1.0448862
-1.4929063 -0.44163257 1.0033425
-1.2282522 -0.68644881 1.0348793
-1.4961517 -0.74148947 1.0078028
-1.1852868 -0.87036163 1.0110646
-1.491555 -0.9225288 0.99517286
-1.2041552 0.088158607 1.0842103
-1.3248131 0.15328865 -1.71716
-1.2483718 0.37567267 -1.3857659
-1.1904211 0.15170412 -1.3525996
-1.1918418 -0.30243197 -1.3284388
-1.2738643 -0.53585458 -1.3469702
-1.1957068 0.65824223 1.0177039
-1.5115824 0.5720951 1.0694674
-1.2251179 0.18910339 1.0718082
-1.5316823 0.13418607 1.0962781
-1.2078848 -0.24841985 1.0216085
-1.4168091 -0.32454684 1.1248986
-1.2031207 -0.64326495 1.0243655
-1.5241032 -0.64644408 1.1276246
-1.1986098 -0.87447011 1.0198137
-1.4978969 -0.89389008 1.1762549
-1.4463081 0.52830464 1.4564046
-1.2480752 0.28787574 1.3890311
-1.5191653 0.16215795 1.3251826
-1.5294158 -0.34569722 1.3762985
-1.4915197 -0.5307107 1.3237532
-1.503238 -0.85673016 1.3300794
-1.2476468 -0.2914325 -1.7143393
-1.3236501 -0.5474413 -1.749897
-1.2822137 -0.32824892 -1.4015272
-1.7363484 -0.31175074 -1.3823588
-1.2635796 -0.08303266 1.0164684
-1.4642558 -0.23792283 0.98771513
-1.5042202 -0.5906167 1.2738477
-1.4944668 -0.84630406 1.2775766
-1.2393281 -0.14189515 1.3643063
-1.4499249 -0.35029599 1.5809842
-1.2179148 -0.73817509 1.6656185
-1.5119715 -0.63162017 1.6368963
-1.2048275 -0.90044993 1.4623841
-1.2152853 0.14487615 1.0136651
-1.217838 -0.010805428 1.0283366
-1.2261043 -0.17944112 1.0111939
-1.1991911 -0.41540936 1.014203
-1.2183411 -0.60998744 1.0286692
-1.2428343 -0.73192906 0.98079371
-1.4820808 -0.55851883 0.99091709
-1.2388957 0.072695561 1.0183995
-1.2280307 -0.30654722 1.0002096
-1.2389026 -0.64861417 1.0112253
-1.4860573 -0.59810674 0.9936676
-1.2658377 -0.34891281 0.99207652
-1.1949346 -0.67832118 0.99793446
-1.5364581 -0.30728033 0.94874036
-1.5145969 -0.59305215 0.9965812
-1.7298518 -0.64708644 -1.3678688
-1.1609774 0.36983758 -1.3385053
-1.188012 0.23564373 1.0478187
-1.158856 0.25639433 -1.3338637
-1.1884524 0.054087538 1.0627779
-1.1588478 0.066823155 -1.3587676
-1.1904472 -0.14295533 1.0846976
-1.1521815 -0.14140943 -1.3402717
-1.1901243 -0.33666939 1.0789827
-1.141727 -0.36225516 -1.3311433
-1.3600487 0.39652145 -1.4719797
-1.2483816 0.24689128 1.0462534
-1.3577893 0.23742975 -1.479429
-1.2790118 0.056428637 1.0274305
-1.2124648 0.039872464 -1.3170223
-1.3572917 0.11267625 -1.4774265
-1.2702416 -0.14207368 1.0090812
-1.3082215 -0.16919923 -1.3073237
-1.2600402 -0.33455789 1.0123519
-1.2526554 -0.31789786 -1.3349491
-1.340911 -0.46211037 -1.2657372
-1.5108703 0.40654358 1.6111194
-1.4943314 0.040201012 1.2689958
-1.4551339 -0.2034322 1.008042
-1.4263972 -0.33141857 1.0078648
-1.5108924 -0.33137611 0.91488069
-1.3950876 -0.29422092 -1.2554221
-1.7446696 -0.41026568 1.009607
-1.6685443 -0.38743448 -1.2491759
-1.7221296 -0.49827197 1.000856
-1.1594902 0.36277148 -1.3091297
-1.1946546 0.15682869 1.0372887
-1.1605839 0.1460875 -1.3195536
-1.187516 -0.23395553 1.0384382
-1.1524591 -0.25325337 -1.3178891
-1.1442051 -0.44169641 -1.3084406
-1.44398 0.40595621 1.4712795
-1.5272524 0.37402982 1.0788496
-1.4049652 0.38916543 -1.3729224
-1.4137406 0.1883404 1.3139242
-1.3771403 0.15291893 1.0515485
-1.3513192 0.18249564 -1.3640058
-1.5107573 -0.42443112 1.5499889
-1.3292179 -0.25844932 0.99737614
-1.32245 -0.26715496 -1.2799069
-1.510424 -0.53143126 1.5537658
-1.3843664 -0.46733162 -1.2519367
-1.7297585 -0.49905142 0.99560803
-1.1751806 -0.35183629 1.0385257
-1.1628799 -0.23202109 -1.4196088
-1.1539056 -0.45874402 -1.3792878
-1.3506287 -0.26672158 1.3562949
-1.4150164 -0.27692574 1.0208157
-1.3564293 -0.25294989 -1.3279175
-1.5004035 -0.4972015 1.232704
-1.5209925 -0.46608201 1.0526052
-1.3550879 -0.48002878 -1.3376467
-1.6744667 -0.49742427 -1.2523966
-1.6535792 0.21641834 0.9987731
-1.4317865 -0.2528677 1.4221582
-1.492075 -0.24857762 0.96532965
-1.1691647 -0.247878 1.0049748
-1.3396566 -0.010922361 -1.6958249
-1.2918841 -0.38580933 -1.6763041
-1.3469374 0.35612592 -1.4960303
-1.3429313 0.13570549 -1.5602674
-1.3387972 0.024400879 -1.5699617
-1.3536559 -0.42042151 -1.5415689
-1.3110639 -0.59689695 -1.4783099
-1.3590509 0.3847467 -1.370603
-1.5825697 0.42539138 -1.3299046
-1.1611339 0.14780621 -1.3831941
-1.3573529 0.20103431 -1.3527271
-1.5710982 0.18499054 -1.3299131
-1.1524714 -0.048799921 -1.3516285
-1.3633413 0.058641564 -1.3747939
-1.5738572 0.068239659 -1.3294548
-1.1647246 -0.21047325 -1.3500507
-1.3304372 -0.2914663 -1.2954754
-1.141754 -0.3409842 -1.3789685
-1.3279737 -0.43383566 -1.2988614
-1.6802667 -0.45197883 -1.2570431
-1.1154346 -0.56564218 -1.3377731
-1.329249 -0.61686778 -1.2988235
-1.654471 -0.65459329 -1.2449327
-1.6672815 -0.57380682 -1.250795
-1.4151719 -0.33241364 0.96978951
-1.4674543 -0.74523187 0.99929178
-1.2075434 0.55025423 1.064086
-1.1979747 0.46258798 1.0598044
-1.2145319 0.38359538 1.0804003
-1.495169 0.40596092 1.0099727
-1.1959345 0.21524352 1.0725625
-1.2374095 0.25622016 1.047938
-1.2157886 -0.0022480227 1.0634751
-1.4914336 -0.035066754 1.0415627
-1.1730647 -0.26735684 1.0078696
-1.2309568 -0.15214427 1.048234
-1.4636016 -0.20874412 1.0002762
-1.1766155 -0.35238552 1.0810422
-1.2245133 -0.35634771 1.0466353
-1.4625242 -0.3875283 1.0760534
-1.1922081 -0.5476377 1.0671908
-1.6564223 -0.50262177 1.0018357
-1.1598969 -0.68397236 1.0739856
-1.2385464 -0.69269449 1.0157601
-1.4961196 0.43051484 1.1825385
-1.492952 0.19881594 1.1927733
-1.4954752 0.061420966 1.2030478
-1.4695557 -0.67911816 1.2029047
-1.5166513 0.48946616 1.5545162
-1.5102319 0.39117828 1.5975865
-1.5090437 0.083354592 1.6011528
-1.3227372 0.088300839 -1.6066536
-1.2894784 -0.43214053 -1.5699986
-1.3178519 -0.61726749 -1.6177005
-1.3101037 0.3495445 -1.3328761
-1.6768054 0.41456667 -1.3348513
-1.261994 0.10403284 -1.3393357
-1.6734947 0.10958214 -1.333657
-1.22043 -0.33097285 -1.3181334
-1.6655873 -0.44951349 -1.2604902
-1.2239848 -0.59064066 -1.3095961
-1.6356517 -0.65064293 -1.2468858
-1.4143553 -0.33297762 0.98216319
-1.1994288 -0.64036673 1.0102586
-1.1942406 0.45706436 1.0286286
-1.4313076 0.45985934 1.1259032
-1.1855366 0.13016702 1.0321441
-1.3745515 0.1222138 1.0882735
-1.1730294 -0.2689158 1.0391413
-1.316896 -0.31150246 1.0597576
-1.1601399 -0.59377038 1.0362051
-1.4193118 -0.62713414 1.1238472
-1.7413963 -0.66997421 1.0020671
-1.4341305 0.52234238 1.5703684
-1.4767464 0.15197915 1.5258223
-1.5044658 -0.38976848 1.5410558
-1.4981799 -0.68786144 1.5969166
-1.2341253 -0.28283674 -1.7031791
-1.6687769 -0.39305288 -1.7079254
-1.302807 -0.34487489 -1.2713366
-1.6853212 -0.34181139 -1.308024
-1.356003 -0.60204589 -1.2773814
-1.6005281 -0.66543597 -1.2568759
-1.4558328 -0.34417626 0.92651403
-1.3659662 -0.22930488 1.1203405
-1.2018005 -0.60283381 1.0426469
-1.7106684 -0.65772951 1.0012146
-1.3000876 -0.2877574 1.5146595
-1.2117767 -0.75125128 1.6757926
-1.3451194 -0.40067658 -1.7459925
-1.3398256 0.42280671 -1.5182263
-1.3408105 0.33108523 -1.4979049
-1.3356018 0.11336444 -1.5562952
-1.295246 -0.35319099 -1.5555211
-1.3151433 -0.48285604 -1.4436867
-1.1339132 0.39625189 -1.3135648
-1.3516465 0.44336459 -1.3508599
-1.1516823 0.29930368 -1.3239595
-1.3423616 0.25193483 -1.3419367
-1.1459498 0.077146254 -1.3287234
-1.147029 -0.11692624 -1.3242028
-1.1197381 -0.33185542 -1.3070118
-1.312904 -0.3329156 -1.3888845
-1.1115961 -0.42920902 -1.2964184
-1.3189598 -0.48528957 -1.3389452
-1.2359307 0.5615747 1.0107548
-1.4902109 0.55878389 1.0239656
-1.1853461 0.4345195 1.0722651
-1.4800643 0.37714243 1.0129864
-1.2105047 0.20238045 1.034672
-1.4776497 0.20164692 1.0257053
-1.2075996 -0.0036118524 1.0708008
-1.2760656 -0.082481891 1.0159433
-1.2029976 -0.24975973 1.0685372
-1.1673396 -0.42001101 1.0841453
-1.4776671 -0.38606906 1.0225413
-1.1991308 -0.59456748 1.0592251
-1.4788861 -0.62705427 1.0350099
-1.1513218 -0.76540494 1.0641196
-1.4706985 -0.80818814 1.0285811
-1.5104033 0.4029547 1.2188449
-1.4809598 -0.84892827 1.2478232
-1.3355768 -0.39769277 -1.7266523
-1.3204801 -0.48659846 -1.7251996
-1.147537 0.39541036 -1.3450699
-1.3440641 0.41136751 -1.4303987
-1.1529917 0.19691019 -1.4081767
-1.3391995 0.21749118 -1.5006309
-1.1409928 -0.21147199 -1.3286846
-1.310164 -0.34654257 -1.419981
-1.1294267 -0.43292567 -1.332494
-1.3207818 -0.48424032 -1.4317509
-1.2302974 0.27780873 1.0323887
-1.655185 0.26229092 1.0231047
-1.2167876 -0.15542153 1.0306532
-1.1893175 -0.53329533 1.0419421
-1.6323954 -0.52519721 1.03688
-1.1853614 -0.76476419 1.0341876
-1.6871321 -0.80776119 1.0567245
-1.2291807 0.35528734 1.3795156
-1.4893206 0.28659919 1.3092289
-1.5188289 -0.22386703 1.4633048
-1.4856763 -0.47364154 1.3323884
-1.4868968 -0.77224594 1.3086665
-1.1785802 -0.16559036 -1.486444
-1.4021444 -0.3353596 -1.4612377
-1.1555728 -0.43843731 -1.3165382
-1.3282589 -0.48501936 -1.5051253
-1.4038779 -0.14480288 0.97900915
-1.6409026 -0.098955765 1.013422
-1.2324705 -0.019463312 1.3897886
-1.4918211 -0.50534469 1.3405862
-1.4087844 -0.71594983 1.3034971
-1.5019571 -0.73431587 1.3421707
-1.2368534 -0.21192224 1.637337
-1.5968789 -0.23431446 1.6790943
-1.2371328 -0.61703104 1.6808708
-1.2100086 -0.5333671 1.0289526
-1.2136993 0.62194443 0.98688716
-1.2182527 0.21368515 1.0088954
-1.1742158 -0.33147267 1.0090575
-1.2179132 -0.66939026 1.0462799
-1.2030525 -0.94766676 1.0581284
-1.7399359 0.25806588 0.99139267
-1.1820498 -0.32907927 1.0575159
-1.3239479 -0.62268996 1.0491588
-1.7418394 -0.2986787 0.99327081
-1.6975269 -0.11782224 0.90371245
-1.3506072 0.38593608 -1.5673468
-1.3378048 0.14045593 -1.6505661
-1.2769616 0.3946355 -1.3597032
-1.324407 0.21143776 -1.3562741
-1.1969135 -0.045674458 -1.3818805
-1.2293686 -0.19281298 -1.3803868
-1.2905747 -0.3719371 -1.3629173
-1.3195542 -0.5701887 -1.3326674
-1.1430224 0.37258539 -1.3401107
-1.1455485 0.20916867 -1.346476
-1.1400708 0.019330431 -1.3426999
-1.1335015 -0.16913727 -1.3250322
-1.1239053 -0.35913056 -1.318851
-1.1151998 -0.52041531 -1.3204592
-1.2590309 0.54970521 0.98862243
-1.4961423 0.49705902 0.99785399
-1.2474567 0.29369241 0.98970628
-1.4885389 0.29898968 1.001821
-1.2559065 0.041857604 1.0027492
-1.4866238 0.10371046 1.0144198
-1.2545053 -0.14735298 1.0006673
-1.232368 -0.52686292 1.0070815
-1.2324365 -0.72074372 1.0108109
-1.2213385 -0.916309 1.0083749
-1.2157772 0.4700959 1.041409
-1.211084 0.1286844 1.0449696
-1.1691928 -0.20741767 1.0610712
-1.1787552 -0.33216834 1.0074704
-1.1662109 -0.52775532 1.0713608
-1.1507801 -0.71198857 1.0156653
-1.1597344 -0.85384566 1.0748677
-1.3120242 -0.54489863 -1.7344979
-1.2263637 0.38893709 -1.3901551
-1.1966871 0.1152962 -1.3672948
-1.1805152 -0.26971644 -1.362837
-1.1965741 -0.54340178 -1.367071
-1.6236743 0.54167044 1.0045805
-1.6252636 0.15217224 1.0117714
-1.2238559 -0.20903152 0.99884295
-1.2126025 -0.5895431 1.0086582
-1.6308316 -0.63314879 0.99819636
-1.181602 -0.91031367 1.0060778
-1.6108693 -0.90412927 0.99529052
-1.1474984 0.64289516 0.97429466
-1.2143239 0.2004469 1.0089893
-1.4887843 0.18597838 1.2577832
-1.183242 -0.20740515 1.0206711
-1.4912181 -0.36811039 1.2876127
-1.170803 -0.58749318 1.0270414
-1.4863162 -0.65138298 1.3027928
-1.1466784 -0.9097684 1.0268476
-1.4739336 -0.93752718 1.3057866
-1.2394229 0.34445155 1.4838479
-1.2765107 -0.32318139 -1.7396094
-1.2868506 -0.28950173 -1.4290407
-1.565184 -0.20043708 -1.3703349
-1.2400101 -0.54383099 -1.3919152
-1.5442508 -0.28848734 0.92824936
-1.224791 -0.080625981 1.2808452
-1.4354231 -0.29280788 1.1963222
-1.5001477 -0.64849734 1.2743447
-1.4916981 -0.92217863 1.2134259
-1.2364963 -0.29631385 1.57546
-1.2960368 0.24331895 -1.7326038
-1.3067341 0.17763083 -1.6346592
-1.3417133 0.016877737 -1.5434287
-1.1493804 0.34182924 -1.3468283
-1.151206 0.20051178 -1.3359703
-1.3391137 0.18411306 -1.3879292
-1.1557053 -0.02917809 -1.3434196
-1.3329662 0.050619412 -1.4521016
-1.1442474 -0.19336534 -1.3456358
-1.1391369 -0.40123761 -1.3464247
-1.1238713 -0.5512042 -1.3477622
-1.3289264 -0.27170461 -1.272161
-1.3030326 -0.40026402 -1.2589517
-1.3214545 -0.57347518 -1.2571543
-1.2384872 0.4618507 1.0070995
-1.4892557 0.42751333 1.0119289
-1.2418628 0.25161168 1.0089515
-1.178789 0.046157863 1.0507914
-1.2483784 -0.007976383 1.0098304
-1.4899442 0.097730398 1.0168451
-1.1809351 -0.16048124 1.075435
-1.2575011 -0.16346787 1.0046083
-1.1724988 -0.36783147 1.0690356
-1.2358017 -0.37000477 1.0068201
-1.4800091 -0.44748116 1.0126017
-1.1579812 -0.57433724 1.0368079
-1.2452844 -0.58265227 1.016812
-1.160869 -0.79494512 1.0740336
-1.2289774 -0.79519731 1.0097898
-1.4775229 -0.78108889 0.99821413
-1.4661162 -0.89553559 1.0081233
-1.483218 0.11354509 1.2758278
-1.3103168 0.35156643 -1.4823956
-1.2483654 0.12151587 -1.4450961
-1.1941935 -0.35418013 -1.3827914
-1.2792091 -0.57390225 -1.4768963
-1.3139209 -0.36904728 -1.2803601
-1.315457 -0.57213777 -1.2831019
-1.2286764 0.57071871 1.0147241
-1.6145513 0.49356455 1.0102404
-1.2057226 0.14807406 1.0179957
-1.6074967 0.15517886 1.0200084
-1.1945162 -0.26385838 1.0178298
-1.5893984 -0.45941108 1.014609
-1.1812397 -0.68111873 1.0186986
-1.6182971 -0.65865153 1.0127505
-1.5891268 -0.92203271 1.0145179
-1.2252986 0.22543928 1.2970225
-1.4854312 0.16494811 1.1884781
-1.4811292 -0.40117019 1.1466142
-1.4820459 -0.64016676 1.2315007
-1.4741051 -0.9387145 1.2306811
-1.2595388 -0.33093545 -1.5201895
-1.2887603 -0.5721119 -1.5284252
-1.3109689 -0.3344653 -1.2793533
-1.3186718 -0.28905562 1.0083553
-1.5639133 -0.25099674 0.98999584
-1.2181087 -0.16572851 1.3768138
-1.5350208 -0.35755342 1.3330673
-1.1787149 -0.91964138 1.4026982
-1.2211505 -0.35219544 1.6771361
-1.4442868 -0.36880806 1.6882662
-1.2112081 -0.65651035 1.6775426
-1.2205989 0.44531018 1.012565
-1.2032306 0.39206833 0.97774744
-1.2061105 0.25638497 1.0069001
-1.2033019 0.034848943 0.9814992
-1.2472329 -0.14860021 1.0054172
-1.1710844 -0.21773414 0.99461961
-1.2193966 -0.41880918 1.0512195
-1.1735613 -0.42170918 0.9958899
-1.2069898 -0.57427442 1.0538383
-1.1847885 -0.57481557 0.99244332
-1.2126467 -0.78320205 1.0532014
-1.1735792 -0.78687441 0.99984753
-1.5576918 0.42682487 0.97026241
-1.6020608 0.05899106 0.98954153
-1.5506053 -0.57011038 0.98947251
-1.5495422 -0.75608385 0.98192668
-1.7270086 0.39648199 0.98618603
-1.7231047 -0.71823519 0.97522891
-1.2632058 0.43525863 0.99349868
-1.3369792 0.124685 1.0027157
-1.2421694 -0.2495333 0.99592698
-1.2182326 -0.6748758 1.0122956
-1.5901713 0.37518531 0.98017681
-1.6958539 0.18248834 0.98621488
-1.7084589 -0.45929873 0.98339605
-1.678546 -0.61294508 0.98513877
-1.2317598 -0.10994613 1.3125663
-1.4330182 -0.23239845 0.98838055
-1.7274435 -0.27595055 0.94147325
-1.5185032 -0.62264639 0.99215281
-1.3198282 -0.42121547 -1.6940596
-1.3219262 -0.51835179 -1.6841807
-1.3436433 0.47841489 -1.4202577
-1.336808 0.29898912 -1.6090081
-1.3169564 -0.51952463 -1.4463937
-1.1276743 0.43342638 -1.3494596
-1.3097175 0.46727192 -1.3462645
-1.1403178 0.25995302 -1.3661203
-1.1628631 0.24380533 -1.3346798
-1.1337249 0.12320147 -1.4022057
-1.1487706 0.0476266 -1.3388411
-1.1179833 -0.19778319 -1.3319454
-1.2150142 -0.14733449 -1.3311349
-1.2039905 -0.32635397 -1.3181106
-1.1096072 -0.53481489 -1.3229504
-1.1649404 -0.49628228 -1.3352278
-1.4270734 -0.16518041 0.92402005
-1.5265397 -0.31639582 1.0090368
-1.5422139 -0.61164516 1.0117643
-1.482134 -0.75821346 1.0363424
-1.2519608 0.55533159 0.98719764
-1.2404083 0.3395381 0.98590612
-1.4932566 0.35494357 1.1518285
-1.1774293 0.12874381 1.007477
-1.4891815 0.13055952 1.1742132
-1.1750876 -0.012073554 1.0437696
-1.1931895 -0.20269622 1.0193408
-1.1662258 -0.44028121 1.0350668
-1.2003441 -0.6569609 1.0117311
-1.2177286 -0.88153124 1.0337095
-1.303749 0.17246006 -1.6338749
-1.3170103 -0.39517915 -1.6483055
-1.3167431 -0.50377345 -1.5500941
-1.190696 0.43826824 -1.3588228
-1.1654111 0.1636177 -1.3571025
-1.1734061 -0.23627613 -1.3425303
-1.3249749 -0.43618017 -1.2566365
-1.1767876 -0.51257956 -1.3203974
-1.3237735 -0.51143479 -1.2514114
-1.3291701 0.25065887 1.0040181
-1.572214 0.26603848 1.010745
-1.3091663 -0.16070324 1.0037053
-1.5439515 -0.22536699 1.12696
-1.2980002 -0.57255661 1.0218136
-1.5218868 -0.55437118 1.2081664
-1.2851124 -0.88642162 1.023402
-1.5228946 -0.78843278 1.2202909
-1.4953822 -0.22651319 1.436661
-1.500337 -0.41527057 1.4810755
-1.2837776 -0.28786594 -1.5606551
-1.7015805 -0.20373744 -1.3519888
-1.3168792 -0.50345504 -1.6151564
-1.2364142 -0.24376169 -1.3099016
-1.1448095 -0.50127095 -1.3542452
-1.4217694 -0.093194805 0.95901513
-1.5034599 -0.3237496 1.2256529
-1.2934843 -0.45176005 1.0833757
-1.4987359 -0.62944108 1.2137568
-1.4962479 -0.78646636 1.2285955
-1.2280962 -0.0072129145 1.31405
-1.4326267 -0.17046365 1.4870088
-1.3585447 -0.65583307 1.5486434
-1.5043861 -0.82591444 1.4989483
-1.1752959 -0.049443156 1.0017502
-1.1861113 -0.20596235 0.99109691
-1.1693337 -0.40527701 0.99940437
-1.2053723 -0.60261327 1.0128531
-1.4418892 -0.40337181 0.92094642
-1.5730622 0.20744649 -1.3484019
-1.5754454 0.067903243 -1.3551904
-1.6524211 -0.43239737 -1.2722514
-1.6821299 -0.55692041 -1.2406024
-1.1790506 -0.049424451 1.0082052
-1.2950156 -0.30186445 0.96608526
-1.2273657 -0.59736818 1.0027791
-1.7490922 0.33777785 -1.3303472
-1.7215101 0.127583 -1.3637576
-1.6924492 -0.54685628 -1.2591004
-1.3664505 -0.29489878 0.95055932
-1.397801 -0.37578547 -1.5326802
-1.1881233 -0.6509499 1.0426227
-1.7219924 -0.35293171 -1.2877116
-1.7194344 -0.27012339 -1.3950936
-1.6997724 -0.55659205 -1.266358
-1.2215629 0.21901737 1.0340211
-1.6885786 0.26408142 0.99827313
-1.1969318 -0.32083356 1.0643955
-1.1919589 -0.62790412 1.0794622
-1.7112079 -0.20184585 0.95307553
-1.1855185 -0.55673897 0.99081784
-1.254487 -0.055119798 0.9992097
-1.2251096 -0.17860393 0.99021584
-1.6086397 0.04985927 1.0003362
-1.5315146 -0.6337471 0.98870987
-1.5566921 -0.80453426 0.97848481
-1.5877397 -0.97548938 0.97738832
-1.6113672 0.27455395 0.99960023
-1.6084986 -0.50896847 0.98236829
-1.234978 0.47900844 1.0216465
-1.2353384 0.069918618 1.0204833
-1.2285168 -0.30426753 0.99238116
-1.2143257 -0.70761794 1.0222633
-1.6276643 0.44303143 0.99622744
-1.6814518 0.15646423 0.99808568
-1.623302 -0.50739074 0.98364466
-1.6421587 -0.70180756 0.97997171
-1.6219499 -0.96733367 0.97990745
-1.0854728 -0.77928138 -1.3267548
-1.6161559 -0.28311279 0.94495219
-1.5124917 -0.75408095 0.98247808
-1.6991625 0.032971352 -1.7245047
-1.5343523 0.32519022 1.0127742
-1.2464404 0.34173077 1.0127056
-1.4734476 -0.060244411 0.98593545
-1.2326138 -0.20147513 -1.7266097
-1.1853602 -0.072372422 -1.3724453
-1.2359657 -0.055415019 0.99930835
-1.1801953 0.078869581 1.2098367
-1.2293119 0.073823094 1.0369124
-1.480165 -0.1674552 1.4669251
-1.4647408 -0.16933717 0.97516561
-1.1519638 -0.018968284 -1.4548864
-1.1909786 -0.016488627 -1.3364573
-1.2271874 0.24342373 1.1070888
-1.4868796 -0.11468673 1.0129788
-1.2035153 -0.19703744 -1.6666861
-1.2071115 -0.1137656 -1.3495924
-1.2253873 -0.10823735 1.0060089
-1.7191807 -0.10732545 0.99681187
-1.1580411 -0.10574585 -1.6182928
-1.1743524 -0.1043895 -1.3560617
-1.3433557 -0.095562115 1.0008402
-1.1225573 0.23256576 -1.3411063
-1.1303378 0.029522263 -1.3361017
-1.1341983 -0.16970725 -1.3348122
-1.1278177 -0.4048838 -1.3365078
-1.1272039 -0.50828886 -1.3380864
-1.2336611 0.3876462 -1.3591176
-1.2180462 0.2270014 -1.3995793
-1.2274044 0.025612071 -1.3663327
-1.2294632 -0.16673367 -1.3342956
-1.3201962 -0.31187123 -1.2671472
-1.1903138 -0.36444467 -1.3423322
-1.2018979 -0.54320395 -1.3477197
-1.6064231 0.17807466 0.99844491
-1.4192164 0.13528204 -1.336216
-1.6106575 0.0980011 0.99169576
-1.4116561 -0.19008446 -1.3328804
-1.3811815 -0.31116721 -1.3189907
-1.6313781 0.019199818 0.98903215
-1.7079861 -0.2044189 0.96927798
-1.7414293 -0.41675916 -1.3345352
-1.2246383 0.38855067 -1.351462
-1.1752774 0.11827352 -1.3662916
-1.3302615 -0.28123623 -1.2728246
-1.185281 -0.2918821 -1.3301259
-1.1707884 -0.54776824 -1.3418854
-1.5498738 0.35705817 -1.335008
-1.5906529 -0.050334156 1.5701449
-1.7197338 0.13942403 0.99155974
-1.566882 0.17653543 -1.3648679
-1.7160532 -0.22818744 0.96902466
-1.4901781 -0.36525354 -1.2716951
-1.5267614 -0.32071522 -1.3084768
-1.5054581 -0.49546507 -1.2671834
-1.4100994 -0.36681411 1.2563984
-1.2528275 -0.23233873 -1.4603337
-1.3095545 -0.32013121 -1.7063727
-1.2268183 -0.52665871 -1.3460817
-1.5676502 -0.38485178 1.2097784
-1.7267748 -0.35705686 0.97178614
-1.7123013 -0.43573731 -1.2748644
-1.5327404 -0.2394858 -1.390895
-1.5063481 -0.064842239 1.0053468
-1.4750607 -0.24092302 0.99103117
-1.2061641 -0.048717991 0.99663782
-1.1891124 -0.228808 0.99722528
-1.3839016 0.3610014 0.98600149
-1.2746214 0.35759428 1.5192728
-1.4204375 0.029189765 0.99858856
-1.3393544 -0.23521805 0.99949312
-1.2404891 0.31116632 0.98484993
-1.1787195 -0.10781863 -1.4531655
-1.2206368 0.041852504 1.0097256
-1.3691081 -0.23653859 0.98746061
-1.1628213 -0.21313012 -1.6229405
-1.1774875 -0.2147648 -1.3520918
-1.2213647 0.58548808 1.0100396
-1.2331018 0.40522772 1.0111419
-1.2332439 0.23285948 1.0543292
-1.2579145 0.054838553 0.99115252
-1.2211781 -0.11521307 0.98652434
-1.1812408 -0.52132827 0.99713838
-1.1706562 -0.76009244 1.0052476
-1.1740596 -0.94120222 1.007213
-1.5170736 0.094146177 0.99059069
-1.6526542 0.44403476 0.97814643
-1.6462698 0.23808388 0.98412859
-1.579052 -0.42577612 0.98794222
-1.5761755 -0.58290154 0.9919275
-1.5745025 -0.79627854 0.99615598
-1.3417292 0.44306654 0.99181056
-1.3440301 0.14628978 0.99640167
-1.3455732 -0.35810351 0.99688458
-1.3191946 -0.65639406 1.0087968
-1.3071241 -0.91175443 1.0159736
-1.7124834 0.4331525 0.97774494
-1.7145572 0.18130814 0.99550831
-1.7097218 -0.41388822 0.98778462
-1.7394998 -0.66113174 0.98848605
-1.4082024 -0.25652334 1.3387811
-1.4777656 -0.26885295 0.98776507
-1.6987777 -0.18368071 0.96033907
-1.6150007 0.21116655 0.98888063
-1.4179726 -0.26256263 1.4036918
-1.4579439 -0.2595287 0.95231271
-1.1540089 -0.06683933 -1.5673728
-1.7114234 -0.45317304 -1.2913764
-1.1839113 -0.89703822 -1.3283279
-1.1663235 0.34121686 -1.3882236
-1.1667987 0.17793551 -1.3997537
-1.3430558 0.21437898 -1.648525
-1.1679655 -0.032902069 -1.3350322
-1.1821895 -0.015527256 -1.4452173
-1.1763762 -0.19305228 -1.3813167
-1.2841892 -0.28134552 -1.3745564
-1.1554506 -0.40575531 -1.3986232
-1.3146806 -0.42927092 -1.4188017
-1.334866 -0.46431869 -1.6415193
-1.1500404 -0.5383696 -1.3939699
-1.3255019 -0.61343622 -1.4307612
-1.3156912 -0.69169641 -1.612865
-1.3630655 0.38083169 -1.458621
-1.3826813 0.12262335 -1.3208684
-1.3663143 0.20040344 -1.4609334
-1.3581529 0.022094566 -1.4545342
-1.3767941 -0.24765129 -1.2931874
-1.3550433 -0.37391672 -1.24229
-1.3353002 -0.42859146 -1.4053689
-1.721635 -0.57882267 -1.2476145
-1.1989615 0.39474615 1.0416422
-1.211673 0.25450656 1.0759158
-1.2081883 0.052352089 1.0872369
-1.2688885 0.10605308 1.0135787
-1.1848713 -0.1465705 1.0768741
-1.2410591 -0.15066843 1.0082475
-1.181386 -0.34477314 1.0602843
-1.2543964 -0.29443517 1.0131105
-1.1761955 -0.46100742 1.0600411
-1.234424 -0.46684402 1.0072629
-1.388212 -0.13200444 1.0063953
-1.4298695 -0.31906188 0.99134773
-1.4248068 -0.25318691 0.91742688
-1.5103078 0.40815109 1.1688733
-1.5017678 0.47596988 1.158343
-1.5027851 0.23384738 1.1727508
-1.4952704 0.33454913 1.1610755
-1.5035925 0.031028647 1.1763207
-1.496927 -0.40770933 1.165291
-1.6803665 -0.42873028 1.0046134
-1.4937812 -0.49210775 1.0931205
-1.6655493 -0.534275 1.0094315
-1.5185454 0.48692897 1.579811
-1.5084362 0.016060252 1.6060323
-1.3034012 0.35710141 -1.3539091
-1.2748075 0.088384539 -1.3709879
-1.2765326 -0.34130472 -1.3330085
-1.2926379 -0.58326811 -1.3159313
-1.7209362 0.39656779 -1.3369296
-1.7036519 0.12340464 -1.333533
-1.7238528 -0.42115146 -1.2639906
-1.6509683 -0.60376173 -1.2440635
-1.2065008 0.39831233 1.05205
-1.2496532 0.39734322 1.0071884
-1.2033119 0.16455092 1.0569304
-1.2269397 0.16216426 1.0175816
-1.1886039 -0.23212765 1.0631471
-1.2097721 -0.23252809 1.0202167
-1.1926939 -0.45923406 1.020835
-1.5143099 0.44966456 1.3929681
-1.5980343 0.4365015 1.0323588
-1.2676396 0.36698657 1.522373
-1.3959706 0.24492067 1.3515055
-1.5085937 0.15066119 1.0361623
-1.5022048 -0.42949164 1.3941069
-1.4174211 -0.29030299 0.9825471
-1.4983602 -0.52314234 1.424903
-1.5944449 -0.52386284 1.0629356
-1.5126786 0.18702529 1.5127597
-1.5033997 -0.5248245 1.5495749
-1.1672695 -0.15429172 -1.5988909
-1.3251367 -0.26272133 -1.3435708
-1.3318375 -0.58954841 -1.3128523
-1.6102107 -0.26089087 -1.3146453
-1.6448855 -0.60533458 -1.2606264
-1.1883827 -0.46388021 1.0623864
-1.2482806 -0.31912962 1.6273214
-1.3497634 -0.25190052 1.3780528
-1.5078528 -0.21798187 0.97914052
-1.5439961 -0.5056383 1.0066237
-1.4539275 -0.36427993 1.5869468
-1.3514118 0.22767264 -1.4029953
-1.2965807 -0.20865145 -1.3734205
-1.3338876 -0.44554928 -1.5627338
-1.3340687 -0.37097299 -1.3770881
-1.3219844 -0.54933465 -1.5649161
-1.3290077 -0.56784284 -1.2573754
-1.1939919 0.42963925 -1.3702809
-1.168803 0.25506362 -1.3410709
-1.1492188 0.033153005 -1.3372132
-1.1738257 -0.15508199 -1.3416872
-1.159634 -0.36840531 -1.3338969
-1.1642231 -0.56191689 -1.3363439
-1.7398573 -0.86663395 1.0213416
-1.5179687 -0.37626383 0.99876666
-1.4971694 -0.53004599 1.0078847
-1.504648 -0.68618077 1.0077651
-1.4859421 -0.84442693 1.0253546
-1.2671645 0.0918025 0.99884677
-1.3292429 -0.062027685 0.99323106
-1.2627728 -0.21078061 1.004164
-1.2460536 -0.51344573 0.99863029
-1.2461581 -0.67083478 1.0335634
-1.2122366 -0.97821081 1.0165818
-1.2363503 -0.82444274 1.0243595
-1.1920003 0.54678881 0.97184491
-1.2456619 0.31915557 0.98769403
-1.1760932 0.094908647 1.0047524
-1.1786909 -0.056126505 1.0061982
-1.2267836 -0.3611066 1.0129001
-1.3523595 0.33629516 -1.4219521
-1.321508 0.18418971 -1.6986119
-1.3446839 0.1490851 -1.4391836
-1.3075395 -0.31906459 -1.3756109
-1.3241775 -0.55858123 -1.5152885
-1.324164 -0.54895771 -1.3579628
-1.1926107 0.41717842 -1.357636
-1.1806328 0.040175028 -1.4986222
-1.1691031 0.15716273 -1.3642006
-1.1727781 -0.27424631 -1.3440667
-1.173303 -0.53471398 -1.3250641
-1.6226199 0.33794114 0.98091722
-1.6230972 -0.3823649 0.99737811
-1.6194179 -0.61658317 1.0054028
-1.6168404 -0.85416794 1.013695
-1.6976265 -0.86191183 1.01635
-1.2487836 0.6080519 0.97277236
-1.2303799 0.22498503 0.98890281
-1.5043617 0.33622077 1.2127364
-1.2234402 -0.19233179 1.000932
-1.2079903 -0.5738256 1.0119069
-1.1925886 -0.98100317 1.0347078
-1.2629714 -0.26695299 -1.7445185
-1.5166773 -0.19075863 -1.3638875
-1.3083087 -0.49554116 -1.6609659
-1.2100153 -0.56784171 -1.3744284
-1.5503879 -0.10847828 0.96464276
-1.7498958 -0.17392871 1.1223924
-1.4304646 -0.21880001 1.0255768
-1.4544318 -0.22797248 1.4701383
-1.5091136 -0.56635988 1.4103749
-1.6828007 0.20476344 1.0030389
-1.1708677 -0.028254688 -1.494489
-1.6643291 -0.12821378 0.99216795
-1.166712 -0.11560433 -1.3533711
-1.3462421 -0.11851475 0.99802828
-1.1380389 -0.082982674 -1.6260021
-1.1707544 -0.08296755 -1.3470333
-1.3103895 -0.13130552 1.0012903
-1.1282444 -0.10780379 -1.6346905
-1.1898212 -0.1097764 -1.3712039
-1.1955247 -0.035949558 1.2541373
-1.1451955 -0.032628149 -1.5120754
-1.1789284 0.55305576 0.98083854
-1.2443779 0.46967053 1.0148742
-1.2354364 0.28804278 1.0055977
-1.250844 0.05271019 0.98389816
-1.2531612 -0.15897232 0.99787593
-1.1907239 -0.42909765 0.98149467
-1.1820402 -0.59411579 0.9871974
-1.1716883 -0.76303101 0.99368215
-1.1921561 -0.87209111 0.99686754
-1.4854202 -0.3040641 1.0016072
-1.5835068 0.1789683 0.98547566
-1.5139713 0.087759033 0.98829865
-1.6662312 -0.52734482 0.98665965
-1.6753352 -0.71660328 0.98345852
-1.2583423 0.48349148 0.99379063
-1.2504759 0.16062705 1.0044265
-1.259711 -0.24774449 0.99570537
-1.2107096 -0.64637429 1.011757
-1.2273569 -0.86626285 1.0220498
-1.6050415 0.41866314 0.9761368
-1.5652359 0.20054965 0.98254144
-1.5363057 -0.34904286 0.98781872
-1.576606 -0.63773578 0.98164296
-1.2267811 -0.099487007 1.3171456
-1.1714344 -0.87795568 1.0007777
-1.52776 -0.24388513 0.95404482
-1.6671848 -0.67135435 0.98304296
-1.5504355 0.32841817 0.9781146
-1.5864449 -0.12262189 1.0033588
