6.804680 0.491517 0.011007 1673510502.902215
6.804686 0.491470 0.011009 1673510502.907200
6.804692 0.491423 0.011010 1673510502.912227
6.804698 0.491376 0.011012 1673510502.917214
6.804704 0.491329 0.011014 1673510502.922199
6.804710 0.491282 0.011016 1673510502.927205
6.804716 0.491234 0.011018 1673510502.932213
6.804722 0.491187 0.011020 1673510502.937203
6.804728 0.491140 0.011022 1673510502.942211
6.804734 0.491093 0.011024 1673510502.947180
6.804740 0.491046 0.011026 1673510502.952208
6.804746 0.490999 0.011028 1673510502.957204
6.804752 0.490951 0.011030 1673510502.962233
6.804758 0.490904 0.011032 1673510502.967217
6.804764 0.490857 0.011034 1673510502.972264
6.804537 0.491794 0.010913 1673510502.983508
6.804536 0.491794 0.010912 1673510502.984618
6.804533 0.491793 0.010910 1673510502.987166
6.804529 0.491791 0.010907 1673510502.992207
6.804524 0.491790 0.010903 1673510502.997191
6.804520 0.491789 0.010900 1673510503.002198
6.804515 0.491787 0.010896 1673510503.007187
6.804510 0.491786 0.010892 1673510503.012212
6.804506 0.491784 0.010889 1673510503.017200
6.804501 0.491783 0.010885 1673510503.022195
6.804497 0.491782 0.010882 1673510503.027194
6.804492 0.491780 0.010878 1673510503.032228
6.804488 0.491779 0.010875 1673510503.037202
6.804483 0.491777 0.010871 1673510503.042220
6.804478 0.491776 0.010867 1673510503.047584
6.804474 0.491775 0.010864 1673510503.052187
6.804470 0.491773 0.010861 1673510503.057203
6.804465 0.491772 0.010857 1673510503.062253
6.804460 0.491770 0.010853 1673510503.067215
6.804456 0.491769 0.010850 1673510503.072205
6.804774 0.492260 0.010784 1673510503.079710
6.804779 0.492271 0.010781 1673510503.082178
6.804789 0.492292 0.010774 1673510503.087243
6.804799 0.492313 0.010768 1673510503.092209
6.804810 0.492334 0.010762 1673510503.097229
6.804820 0.492355 0.010755 1673510503.102202
6.804830 0.492377 0.010749 1673510503.107256
6.804841 0.492398 0.010743 1673510503.112257
6.804851 0.492419 0.010736 1673510503.117229
6.804861 0.492440 0.010730 1673510503.122237
6.804871 0.492461 0.010724 1673510503.127245
6.804887 0.492493 0.010714 1673510503.134680
6.804892 0.492503 0.010711 1673510503.137228
6.804902 0.492524 0.010705 1673510503.142214
6.804913 0.492546 0.010698 1673510503.147251
6.804923 0.492567 0.010692 1673510503.152238
6.804933 0.492588 0.010686 1673510503.157212
6.804943 0.492609 0.010680 1673510503.162212
6.804954 0.492630 0.010673 1673510503.167221
6.804964 0.492652 0.010667 1673510503.172291
6.805717 0.493823 0.010498 1673510503.178765
6.805748 0.493874 0.010488 1673510503.182195
6.805793 0.493949 0.010474 1673510503.187261
6.805838 0.494023 0.010460 1673510503.192235
6.805882 0.494097 0.010447 1673510503.197206
6.805927 0.494171 0.010433 1673510503.202208
6.805972 0.494245 0.010419 1673510503.207205
6.806016 0.494320 0.010405 1673510503.212224
6.806061 0.494395 0.010391 1673510503.217245
6.806106 0.494468 0.010378 1673510503.222200
6.806150 0.494543 0.010364 1673510503.227201
6.806196 0.494618 0.010350 1673510503.232303
6.806240 0.494692 0.010336 1673510503.237248
6.806284 0.494765 0.010322 1673510503.242200
6.806329 0.494840 0.010308 1673510503.247241
6.806374 0.494915 0.010295 1673510503.252237
6.806419 0.494989 0.010281 1673510503.257207
6.806463 0.495063 0.010267 1673510503.262224
6.806508 0.495138 0.010253 1673510503.267262
6.806553 0.495211 0.010240 1673510503.272202
6.805612 0.495094 0.010143 1673510503.281604
6.805611 0.495112 0.010138 1673510503.283066
6.805609 0.495163 0.010124 1673510503.287192
6.805607 0.495227 0.010107 1673510503.292296
6.805605 0.495289 0.010090 1673510503.297212
6.805603 0.495352 0.010073 1673510503.302244
6.805601 0.495414 0.010056 1673510503.307203
6.805599 0.495477 0.010039 1673510503.312257
6.805597 0.495539 0.010022 1673510503.317200
6.805595 0.495602 0.010005 1673510503.322209
6.805593 0.495664 0.009988 1673510503.327204
6.805590 0.495728 0.009971 1673510503.332278
6.805588 0.495789 0.009954 1673510503.337208
6.805586 0.495851 0.009937 1673510503.342173
6.805584 0.495915 0.009920 1673510503.347277
6.805582 0.495977 0.009903 1673510503.352193
6.805580 0.496040 0.009886 1673510503.357210
6.805578 0.496102 0.009869 1673510503.362190
6.805576 0.496165 0.009852 1673510503.367208
6.805574 0.496228 0.009835 1673510503.372264
6.804030 0.494293 0.010089 1673510503.381721
6.804023 0.494290 0.010089 1673510503.382190
6.803950 0.494258 0.010085 1673510503.387209
6.803872 0.494224 0.010081 1673510503.392590
6.803803 0.494194 0.010077 1673510503.397309
6.803732 0.494163 0.010074 1673510503.402194
6.803658 0.494131 0.010070 1673510503.407243
6.803585 0.494099 0.010066 1673510503.412286
6.803513 0.494067 0.010062 1673510503.417220
6.803440 0.494036 0.010058 1673510503.422212
6.803367 0.494004 0.010055 1673510503.427227
6.803293 0.493972 0.010051 1673510503.432283
6.803222 0.493940 0.010047 1673510503.437198
6.803149 0.493909 0.010043 1673510503.442184
6.803074 0.493876 0.010039 1673510503.447371
6.802993 0.493841 0.010035 1673510503.452877
6.802931 0.493813 0.010032 1673510503.457190
6.802858 0.493782 0.010028 1673510503.462197
6.802783 0.493749 0.010024 1673510503.467341
6.802712 0.493718 0.010020 1673510503.472201
6.802639 0.493686 0.010016 1673510503.477222
6.801716 0.493969 0.010370 1673510503.484748
6.801660 0.493961 0.010376 1673510503.487323
6.801553 0.493944 0.010388 1673510503.492215
6.801444 0.493927 0.010400 1673510503.497191
6.801335 0.493911 0.010413 1673510503.502186
6.801225 0.493894 0.010425 1673510503.507201
6.801102 0.493875 0.010439 1673510503.512798
6.801005 0.493860 0.010450 1673510503.517234
6.800896 0.493843 0.010462 1673510503.522212
6.800787 0.493826 0.010474 1673510503.527195
6.800677 0.493809 0.010487 1673510503.532207
6.800568 0.493792 0.010499 1673510503.537206
6.800459 0.493776 0.010511 1673510503.542195
6.800349 0.493759 0.010524 1673510503.547228
6.800239 0.493742 0.010536 1673510503.552230
6.800131 0.493725 0.010548 1673510503.557178
6.800021 0.493708 0.010561 1673510503.562209
6.799911 0.493691 0.010573 1673510503.567208
6.799801 0.493674 0.010586 1673510503.572221
6.799691 0.493657 0.010598 1673510503.577252
6.799582 0.493641 0.010610 1673510503.582229
6.801558 0.492857 0.010175 1673510503.588018
6.801543 0.492814 0.010168 1673510503.592232
6.801527 0.492764 0.010161 1673510503.597206
6.801510 0.492713 0.010153 1673510503.602216
6.801493 0.492663 0.010146 1673510503.607230
6.801476 0.492612 0.010138 1673510503.612300
6.801460 0.492562 0.010131 1673510503.617234
6.801443 0.492511 0.010124 1673510503.622222
6.801426 0.492461 0.010116 1673510503.627188
6.801409 0.492410 0.010109 1673510503.632200
6.801393 0.492360 0.010101 1673510503.637192
6.801376 0.492309 0.010094 1673510503.642199
6.801359 0.492258 0.010086 1673510503.647226
6.801342 0.492208 0.010079 1673510503.652205
6.801325 0.492158 0.010071 1673510503.657191
6.801309 0.492107 0.010064 1673510503.662205
6.801292 0.492056 0.010056 1673510503.667204
6.801275 0.492006 0.010049 1673510503.672214
6.801249 0.491926 0.010037 1673510503.680130
6.801947 0.492143 0.010252 1673510503.686974
6.801948 0.492141 0.010252 1673510503.687197
6.801964 0.492103 0.010255 1673510503.692244
6.801979 0.492066 0.010257 1673510503.697202
6.801995 0.492028 0.010260 1673510503.702221
6.802011 0.491991 0.010263 1673510503.707206
6.802026 0.491953 0.010265 1673510503.712222
6.802042 0.491915 0.010268 1673510503.717212
6.802057 0.491877 0.010271 1673510503.722217
6.802073 0.491840 0.010273 1673510503.727191
6.802089 0.491802 0.010276 1673510503.732235
6.802104 0.491764 0.010278 1673510503.737206
6.802120 0.491727 0.010281 1673510503.742181
6.802135 0.491689 0.010284 1673510503.747237
6.802151 0.491651 0.010286 1673510503.752210
6.802166 0.491614 0.010289 1673510503.757189
6.802182 0.491576 0.010291 1673510503.762188
6.802198 0.491538 0.010294 1673510503.767261
6.802213 0.491500 0.010297 1673510503.772211
6.802229 0.491463 0.010299 1673510503.777212
6.802231 0.491760 0.010359 1673510503.784206
6.802240 0.491748 0.010362 1673510503.787175
6.802255 0.491726 0.010367 1673510503.792284
6.802270 0.491704 0.010372 1673510503.797219
6.802284 0.491683 0.010377 1673510503.802196
6.802299 0.491662 0.010382 1673510503.807216
6.802314 0.491640 0.010388 1673510503.812219
6.802328 0.491619 0.010393 1673510503.817189
6.802343 0.491597 0.010398 1673510503.822194
6.802358 0.491576 0.010403 1673510503.827182
6.802373 0.491554 0.010408 1673510503.832227
6.802387 0.491533 0.010414 1673510503.837238
6.802402 0.491511 0.010419 1673510503.842201
6.802417 0.491490 0.010424 1673510503.847238
6.802431 0.491468 0.010429 1673510503.852241
6.802446 0.491447 0.010434 1673510503.857217
6.802461 0.491425 0.010440 1673510503.862246
6.802475 0.491404 0.010445 1673510503.867238
6.802490 0.491383 0.010450 1673510503.872228
6.802505 0.491361 0.010455 1673510503.877212
6.803945 0.492509 0.010250 1673510503.888649
6.803955 0.492513 0.010250 1673510503.889282
6.804001 0.492532 0.010247 1673510503.892205
6.804079 0.492564 0.010243 1673510503.897211
6.804157 0.492596 0.010238 1673510503.902221
6.804235 0.492629 0.010234 1673510503.907241
6.804313 0.492661 0.010229 1673510503.912237
6.804391 0.492693 0.010224 1673510503.917245
6.804468 0.492725 0.010220 1673510503.922223
6.804547 0.492758 0.010215 1673510503.927303
6.804624 0.492790 0.010211 1673510503.932234
6.804701 0.492822 0.010206 1673510503.937199
6.804779 0.492854 0.010202 1673510503.942213
6.804857 0.492886 0.010197 1673510503.947197
6.804935 0.492919 0.010193 1673510503.952218
6.805013 0.492951 0.010188 1673510503.957201
6.805091 0.492983 0.010184 1673510503.962227
6.805169 0.493016 0.010179 1673510503.967257
6.805246 0.493048 0.010175 1673510503.972200
6.805324 0.493080 0.010170 1673510503.977182
6.805402 0.493112 0.010166 1673510503.982194
6.804579 0.493221 0.010275 1673510503.988309
6.804608 0.493249 0.010275 1673510503.992195
6.804644 0.493284 0.010276 1673510503.997238
6.804680 0.493319 0.010276 1673510504.002196
6.804716 0.493355 0.010277 1673510504.007193
6.804752 0.493390 0.010278 1673510504.012189
6.804789 0.493426 0.010278 1673510504.017207
6.804825 0.493461 0.010279 1673510504.022194
6.804861 0.493497 0.010280 1673510504.027255
6.804926 0.493560 0.010281 1673510504.036179
6.804934 0.493567 0.010281 1673510504.037205
6.804970 0.493602 0.010282 1673510504.042184
6.805006 0.493638 0.010282 1673510504.047250
6.805042 0.493674 0.010283 1673510504.052236
6.805080 0.493710 0.010284 1673510504.057434
6.805115 0.493744 0.010284 1673510504.062244
6.805151 0.493780 0.010285 1673510504.067220
6.805187 0.493815 0.010286 1673510504.072201
6.805223 0.493850 0.010286 1673510504.077216
6.805259 0.493886 0.010287 1673510504.082209
6.804680 0.494870 0.010391 1673510504.089527
6.804684 0.494912 0.010394 1673510504.092199
6.804691 0.494990 0.010399 1673510504.097252
6.804699 0.495067 0.010404 1673510504.102196
6.804707 0.495145 0.010410 1673510504.107208
6.804714 0.495222 0.010415 1673510504.112198
6.804722 0.495300 0.010420 1673510504.117216
6.804729 0.495377 0.010426 1673510504.122214
6.804741 0.495499 0.010434 1673510504.130037
6.804747 0.495560 0.010438 1673510504.133964
6.804752 0.495611 0.010442 1673510504.137288
6.804760 0.495688 0.010447 1673510504.142238
6.804767 0.495765 0.010452 1673510504.147217
6.804775 0.495842 0.010457 1673510504.152189
6.804783 0.495920 0.010463 1673510504.157223
6.804790 0.495999 0.010468 1673510504.162261
6.804798 0.496075 0.010473 1673510504.167218
6.804806 0.496153 0.010479 1673510504.172229
6.804813 0.496231 0.010484 1673510504.177220
6.804821 0.496308 0.010489 1673510504.182227
6.804900 0.495527 0.010621 1673510504.191216
6.804903 0.495534 0.010623 1673510504.192190
6.804914 0.495573 0.010635 1673510504.197490
6.804924 0.495607 0.010645 1673510504.202204
6.804934 0.495643 0.010656 1673510504.207224
6.804945 0.495680 0.010667 1673510504.212204
6.804955 0.495716 0.010678 1673510504.217215
6.804966 0.495753 0.010688 1673510504.222283
6.804977 0.495788 0.010699 1673510504.227216
6.804987 0.495825 0.010710 1673510504.232213
6.804998 0.495861 0.010721 1673510504.237217
6.805008 0.495897 0.010732 1673510504.242233
6.805019 0.495934 0.010742 1673510504.247240
6.805030 0.495971 0.010753 1673510504.252331
6.805040 0.496006 0.010764 1673510504.257207
6.805051 0.496044 0.010775 1673510504.262415
6.805061 0.496078 0.010786 1673510504.267205
6.805072 0.496115 0.010796 1673510504.272245
6.805082 0.496151 0.010807 1673510504.277219
6.805093 0.496187 0.010818 1673510504.282229
6.805048 0.495064 0.010577 1673510504.290709
6.805054 0.495050 0.010576 1673510504.294861
6.805058 0.495041 0.010576 1673510504.297227
6.805066 0.495024 0.010575 1673510504.302254
6.805073 0.495006 0.010574 1673510504.307226
6.805081 0.494989 0.010573 1673510504.312222
6.805089 0.494971 0.010572 1673510504.317229
6.805096 0.494953 0.010571 1673510504.322204
6.805104 0.494936 0.010570 1673510504.327199
6.805112 0.494918 0.010569 1673510504.332329
6.805119 0.494901 0.010568 1673510504.337185
6.805127 0.494883 0.010567 1673510504.342168
6.805137 0.494861 0.010566 1673510504.348613
6.805143 0.494848 0.010565 1673510504.352233
6.805150 0.494831 0.010564 1673510504.357206
6.805158 0.494813 0.010563 1673510504.362222
6.805166 0.494795 0.010562 1673510504.367212
6.805173 0.494778 0.010561 1673510504.372213
6.805181 0.494760 0.010560 1673510504.377224
6.805189 0.494743 0.010559 1673510504.382230
6.804226 0.494848 0.010363 1673510504.391464
6.804216 0.494845 0.010360 1673510504.392924
6.804182 0.494835 0.010351 1673510504.397425
6.804147 0.494824 0.010341 1673510504.402193
6.804111 0.494813 0.010332 1673510504.407196
6.804074 0.494801 0.010322 1673510504.412236
6.804037 0.494790 0.010312 1673510504.417186
6.804000 0.494779 0.010302 1673510504.422226
6.803964 0.494767 0.010292 1673510504.427199
6.803927 0.494756 0.010282 1673510504.432234
6.803890 0.494745 0.010273 1673510504.437230
6.803854 0.494733 0.010263 1673510504.442207
6.803817 0.494722 0.010253 1673510504.447235
6.803780 0.494711 0.010243 1673510504.452238
6.803744 0.494700 0.010233 1673510504.457191
6.803707 0.494688 0.010223 1673510504.462211
6.803670 0.494677 0.010214 1673510504.467215
6.803633 0.494666 0.010204 1673510504.472248
6.803596 0.494654 0.010194 1673510504.477232
6.803560 0.494643 0.010184 1673510504.482207
6.803387 0.493500 0.010320 1673510504.491565
6.803382 0.493492 0.010320 1673510504.492184
6.803340 0.493429 0.010317 1673510504.497223
6.803299 0.493367 0.010314 1673510504.502184
6.803257 0.493304 0.010311 1673510504.507210
6.803215 0.493241 0.010308 1673510504.512222
6.803174 0.493178 0.010306 1673510504.517191
6.803132 0.493115 0.010303 1673510504.522220
6.803091 0.493053 0.010300 1673510504.527202
6.803049 0.492990 0.010297 1673510504.532253
6.803008 0.492928 0.010295 1673510504.537196
6.802966 0.492865 0.010292 1673510504.542229
6.802925 0.492802 0.010289 1673510504.547223
6.802883 0.492739 0.010286 1673510504.552216
6.802842 0.492676 0.010283 1673510504.557250
6.802800 0.492613 0.010281 1673510504.562257
6.802759 0.492551 0.010278 1673510504.567205
6.802718 0.492489 0.010275 1673510504.572197
6.802676 0.492426 0.010272 1673510504.577190
6.802635 0.492364 0.010270 1673510504.582190
6.803068 0.493299 0.010233 1673510504.590836
6.803063 0.493295 0.010232 1673510504.592180
6.803045 0.493281 0.010228 1673510504.597202
6.803026 0.493266 0.010223 1673510504.602229
6.803008 0.493252 0.010219 1673510504.607282
6.802990 0.493238 0.010215 1673510504.612235
6.802972 0.493224 0.010211 1673510504.617219
6.802954 0.493210 0.010206 1673510504.622232
6.802936 0.493195 0.010202 1673510504.627241
6.802913 0.493177 0.010197 1673510504.633625
6.802900 0.493167 0.010194 1673510504.637210
6.802882 0.493153 0.010189 1673510504.642199
6.802863 0.493138 0.010185 1673510504.647465
6.802846 0.493125 0.010181 1673510504.652185
6.802828 0.493110 0.010177 1673510504.657178
6.802810 0.493096 0.010172 1673510504.662202
6.802792 0.493082 0.010168 1673510504.667222
6.802774 0.493068 0.010164 1673510504.672209
6.802756 0.493054 0.010160 1673510504.677197
6.802738 0.493039 0.010155 1673510504.682213
6.802720 0.493025 0.010151 1673510504.687215
6.803999 0.492826 0.010138 1673510504.694350
6.804023 0.492813 0.010135 1673510504.697233
6.804064 0.492791 0.010131 1673510504.702199
6.804106 0.492768 0.010126 1673510504.707206
6.804147 0.492746 0.010121 1673510504.712230
6.804188 0.492724 0.010117 1673510504.717227
6.804230 0.492701 0.010112 1673510504.722247
6.804271 0.492679 0.010108 1673510504.727203
6.804313 0.492656 0.010103 1673510504.732288
6.804354 0.492634 0.010099 1673510504.737211
6.804395 0.492612 0.010094 1673510504.742222
6.804436 0.492590 0.010089 1673510504.747244
6.804478 0.492567 0.010085 1673510504.752242
6.804519 0.492545 0.010080 1673510504.757213
6.804560 0.492523 0.010076 1673510504.762238
6.804601 0.492500 0.010071 1673510504.767202
6.804643 0.492478 0.010067 1673510504.772211
6.804684 0.492456 0.010062 1673510504.777189
6.804725 0.492433 0.010057 1673510504.782200
6.804767 0.492411 0.010053 1673510504.787233
6.804778 0.491411 0.010052 1673510504.794890
6.804796 0.491381 0.010050 1673510504.797210
6.804835 0.491314 0.010046 1673510504.802196
6.804873 0.491249 0.010041 1673510504.807170
6.804913 0.491182 0.010037 1673510504.812221
6.804952 0.491115 0.010033 1673510504.817216
6.804991 0.491049 0.010029 1673510504.822214
6.805030 0.490983 0.010024 1673510504.827245
6.805068 0.490917 0.010020 1673510504.832215
6.805107 0.490850 0.010016 1673510504.837220
6.805146 0.490785 0.010011 1673510504.842180
6.805186 0.490717 0.010007 1673510504.847286
6.805224 0.490652 0.010003 1673510504.852176
6.805264 0.490584 0.009998 1673510504.857355
6.805303 0.490518 0.009994 1673510504.862292
6.805341 0.490452 0.009990 1673510504.867257
6.805380 0.490387 0.009986 1673510504.872202
6.805419 0.490321 0.009981 1673510504.877210
6.805458 0.490254 0.009977 1673510504.882260
6.805497 0.490188 0.009973 1673510504.887233
6.804917 0.490931 0.009924 1673510504.895923
6.804920 0.490923 0.009923 1673510504.897415
6.804929 0.490897 0.009917 1673510504.902213
6.804939 0.490870 0.009911 1673510504.907232
6.804949 0.490842 0.009904 1673510504.912212
6.804958 0.490815 0.009898 1673510504.917220
6.804968 0.490788 0.009892 1673510504.922220
6.804977 0.490760 0.009886 1673510504.927238
6.804987 0.490733 0.009880 1673510504.932203
6.804996 0.490706 0.009874 1673510504.937223
6.805006 0.490679 0.009868 1673510504.942222
6.805015 0.490652 0.009861 1673510504.947208
6.805025 0.490624 0.009855 1673510504.952203
6.805035 0.490597 0.009849 1673510504.957221
6.805044 0.490570 0.009843 1673510504.962198
6.805054 0.490543 0.009837 1673510504.967201
6.805063 0.490515 0.009831 1673510504.972184
6.805073 0.490488 0.009825 1673510504.977234
6.805083 0.490460 0.009818 1673510504.982322
6.805092 0.490433 0.009812 1673510504.987218
6.804640 0.491462 0.009896 1673510504.995894
6.804636 0.491469 0.009896 1673510504.997570
6.804625 0.491489 0.009894 1673510505.002219
6.804613 0.491511 0.009892 1673510505.007197
6.804601 0.491533 0.009891 1673510505.012235
6.804589 0.491555 0.009889 1673510505.017221
6.804577 0.491577 0.009887 1673510505.022198
6.804565 0.491599 0.009885 1673510505.027202
6.804554 0.491621 0.009883 1673510505.032209
6.804542 0.491643 0.009881 1673510505.037205
6.804530 0.491665 0.009880 1673510505.042206
6.804518 0.491687 0.009878 1673510505.047261
6.804506 0.491709 0.009876 1673510505.052222
6.804494 0.491731 0.009874 1673510505.057199
6.804482 0.491753 0.009872 1673510505.062207
6.804470 0.491775 0.009871 1673510505.067241
6.804458 0.491797 0.009869 1673510505.072207
6.804446 0.491819 0.009867 1673510505.077237
6.804435 0.491841 0.009865 1673510505.082190
6.804423 0.491863 0.009863 1673510505.087229
6.804347 0.492876 0.009945 1673510505.095831
6.804343 0.492895 0.009945 1673510505.097198
6.804329 0.492962 0.009947 1673510505.102218
6.804314 0.493029 0.009950 1673510505.107215
6.804300 0.493095 0.009952 1673510505.112195
6.804286 0.493163 0.009954 1673510505.117215
6.804271 0.493230 0.009956 1673510505.122222
6.804257 0.493297 0.009958 1673510505.127270
6.804242 0.493364 0.009960 1673510505.132255
6.804228 0.493431 0.009962 1673510505.137214
6.804213 0.493500 0.009964 1673510505.142380
6.804199 0.493565 0.009966 1673510505.147203
6.804184 0.493632 0.009968 1673510505.152263
6.804170 0.493699 0.009970 1673510505.157220
6.804156 0.493766 0.009973 1673510505.162217
6.804141 0.493833 0.009975 1673510505.167219
6.804127 0.493900 0.009977 1673510505.172197
6.804112 0.493967 0.009979 1673510505.177212
6.804098 0.494034 0.009981 1673510505.182206
6.804084 0.494101 0.009983 1673510505.187217
6.804069 0.494170 0.009985 1673510505.192395
6.804082 0.494264 0.010149 1673510505.198155
6.804072 0.494319 0.010157 1673510505.202193
6.804059 0.494387 0.010166 1673510505.207178
6.804046 0.494455 0.010175 1673510505.212201
6.804032 0.494523 0.010185 1673510505.217247
6.804020 0.494590 0.010194 1673510505.222197
6.804006 0.494658 0.010204 1673510505.227189
6.803993 0.494726 0.010213 1673510505.232218
6.803980 0.494793 0.010223 1673510505.237191
6.803967 0.494861 0.010232 1673510505.242213
6.803954 0.494929 0.010242 1673510505.247232
6.803941 0.495000 0.010251 1673510505.252445
6.803928 0.495064 0.010260 1673510505.257189
6.803915 0.495133 0.010270 1673510505.262224
6.803902 0.495200 0.010279 1673510505.267213
6.803889 0.495268 0.010289 1673510505.272213
6.803876 0.495337 0.010298 1673510505.277276
6.803863 0.495403 0.010308 1673510505.282206
6.803850 0.495471 0.010317 1673510505.287199
6.803837 0.495539 0.010326 1673510505.292184
6.803642 0.494374 0.010300 1673510505.297802
6.803623 0.494383 0.010306 1673510505.302211
6.803601 0.494394 0.010314 1673510505.307244
6.803580 0.494405 0.010322 1673510505.312201
6.803559 0.494415 0.010329 1673510505.317179
6.803538 0.494426 0.010337 1673510505.322180
6.803516 0.494437 0.010345 1673510505.327236
6.803494 0.494447 0.010353 1673510505.332268
6.803473 0.494458 0.010360 1673510505.337186
6.803452 0.494468 0.010368 1673510505.342200
6.803431 0.494479 0.010376 1673510505.347208
6.803409 0.494490 0.010384 1673510505.352225
6.803388 0.494500 0.010391 1673510505.357232
6.803366 0.494511 0.010399 1673510505.362227
6.803345 0.494522 0.010407 1673510505.367219
6.803324 0.494532 0.010414 1673510505.372216
6.803302 0.494543 0.010422 1673510505.377222
6.803281 0.494553 0.010430 1673510505.382193
6.803260 0.494564 0.010438 1673510505.387229
6.803238 0.494575 0.010445 1673510505.392193
6.803018 0.493968 0.010432 1673510505.401231
6.803012 0.493965 0.010434 1673510505.402168
6.802983 0.493947 0.010440 1673510505.407193
6.802953 0.493930 0.010447 1673510505.412235
6.802924 0.493912 0.010453 1673510505.417196
6.802894 0.493895 0.010460 1673510505.422194
6.802864 0.493877 0.010466 1673510505.427240
6.802835 0.493860 0.010473 1673510505.432226
6.802805 0.493842 0.010479 1673510505.437243
6.802775 0.493824 0.010486 1673510505.442267
6.802746 0.493807 0.010492 1673510505.447206
6.802717 0.493789 0.010499 1673510505.452205
6.802687 0.493772 0.010505 1673510505.457193
6.802658 0.493754 0.010512 1673510505.462189
6.802628 0.493737 0.010518 1673510505.467211
6.802598 0.493719 0.010525 1673510505.472211
6.802569 0.493702 0.010531 1673510505.477214
6.802539 0.493684 0.010538 1673510505.482197
6.802510 0.493667 0.010544 1673510505.487229
6.802480 0.493649 0.010551 1673510505.492216
6.802450 0.493631 0.010557 1673510505.497279
6.802840 0.493783 0.010512 1673510505.505914
6.802838 0.493781 0.010513 1673510505.507225
6.802827 0.493771 0.010517 1673510505.512242
6.802817 0.493761 0.010521 1673510505.517276
6.802807 0.493752 0.010525 1673510505.522196
6.802795 0.493741 0.010530 1673510505.527914
6.802786 0.493733 0.010534 1673510505.532233
6.802776 0.493723 0.010538 1673510505.537212
6.802765 0.493713 0.010542 1673510505.542254
6.802755 0.493704 0.010546 1673510505.547209
6.802744 0.493694 0.010550 1673510505.552231
6.802734 0.493685 0.010554 1673510505.557209
6.802724 0.493675 0.010558 1673510505.562316
6.802713 0.493665 0.010562 1673510505.567232
6.802703 0.493656 0.010566 1673510505.572242
6.802693 0.493646 0.010570 1673510505.577236
6.802682 0.493637 0.010574 1673510505.582196
6.802672 0.493627 0.010578 1673510505.587265
6.802662 0.493617 0.010582 1673510505.592200
6.802651 0.493607 0.010586 1673510505.597400
6.802844 0.493228 0.010672 1673510505.603020
6.802843 0.493206 0.010678 1673510505.607201
6.802842 0.493180 0.010686 1673510505.612207
6.802841 0.493154 0.010694 1673510505.617206
6.802840 0.493127 0.010701 1673510505.622227
6.802839 0.493101 0.010709 1673510505.627231
6.802838 0.493071 0.010718 1673510505.632985
6.802837 0.493049 0.010725 1673510505.637208
6.802835 0.493023 0.010732 1673510505.642214
6.802834 0.492997 0.010740 1673510505.647211
6.802833 0.492970 0.010748 1673510505.652196
6.802832 0.492944 0.010755 1673510505.657188
6.802831 0.492918 0.010763 1673510505.662210
6.802830 0.492892 0.010771 1673510505.667213
6.802829 0.492866 0.010778 1673510505.672189
6.802827 0.492839 0.010786 1673510505.677207
6.802826 0.492812 0.010794 1673510505.682435
6.802825 0.492787 0.010801 1673510505.687216
6.802824 0.492761 0.010809 1673510505.692232
6.802823 0.492733 0.010817 1673510505.697440
6.804267 0.492878 0.010654 1673510505.702954
6.804322 0.492863 0.010654 1673510505.707211
6.804386 0.492844 0.010654 1673510505.712195
6.804450 0.492826 0.010654 1673510505.717195
6.804515 0.492808 0.010654 1673510505.722218
6.804580 0.492789 0.010654 1673510505.727266
6.804643 0.492771 0.010654 1673510505.732201
6.804708 0.492753 0.010653 1673510505.737219
6.804772 0.492735 0.010653 1673510505.742223
6.804837 0.492716 0.010653 1673510505.747256
6.804901 0.492698 0.010653 1673510505.752228
6.804966 0.492680 0.010653 1673510505.757230
6.805030 0.492661 0.010653 1673510505.762224
6.805095 0.492643 0.010653 1673510505.767233
6.805158 0.492625 0.010653 1673510505.772196
6.805223 0.492606 0.010653 1673510505.777233
6.805288 0.492588 0.010653 1673510505.782232
6.805352 0.492570 0.010653 1673510505.787213
6.805417 0.492551 0.010653 1673510505.792241
6.805483 0.492532 0.010652 1673510505.797402
6.804697 0.492847 0.010532 1673510505.802690
6.804720 0.492844 0.010527 1673510505.807199
6.804745 0.492841 0.010522 1673510505.812199
6.804770 0.492838 0.010516 1673510505.817237
6.804796 0.492835 0.010510 1673510505.822234
6.804821 0.492832 0.010505 1673510505.827218
6.804846 0.492829 0.010499 1673510505.832182
6.804871 0.492826 0.010494 1673510505.837241
6.804897 0.492823 0.010488 1673510505.842239
6.804922 0.492820 0.010482 1673510505.847305
6.804947 0.492817 0.010477 1673510505.852213
6.804972 0.492814 0.010471 1673510505.857208
6.804998 0.492811 0.010466 1673510505.862228
6.805023 0.492808 0.010460 1673510505.867222
6.805048 0.492805 0.010454 1673510505.872197
6.805073 0.492802 0.010449 1673510505.877223
6.805100 0.492799 0.010443 1673510505.882555
6.805124 0.492796 0.010438 1673510505.887200
6.805149 0.492793 0.010432 1673510505.892195
6.805174 0.492790 0.010426 1673510505.897241
6.803991 0.492849 0.010764 1673510505.902389
6.803962 0.492849 0.010774 1673510505.907208
6.803931 0.492849 0.010784 1673510505.912175
6.803900 0.492849 0.010794 1673510505.917251
6.803870 0.492848 0.010804 1673510505.922201
6.803839 0.492848 0.010815 1673510505.927254
6.803808 0.492848 0.010825 1673510505.932228
6.803777 0.492848 0.010835 1673510505.937208
6.803747 0.492848 0.010846 1673510505.942230
6.803716 0.492848 0.010856 1673510505.947242
6.803685 0.492848 0.010866 1673510505.952199
6.803655 0.492847 0.010876 1673510505.957196
6.803624 0.492847 0.010887 1673510505.962219
6.803593 0.492847 0.010897 1673510505.967246
6.803562 0.492847 0.010907 1673510505.972215
6.803531 0.492847 0.010918 1673510505.977244
6.803501 0.492847 0.010928 1673510505.982198
6.803470 0.492847 0.010938 1673510505.987195
6.803440 0.492846 0.010948 1673510505.992177
6.803392 0.492846 0.010964 1673510505.999921
6.803912 0.492652 0.010615 1673510506.005840
6.803910 0.492649 0.010614 1673510506.007193
6.803904 0.492640 0.010608 1673510506.012281
6.803899 0.492631 0.010602 1673510506.017199
6.803893 0.492623 0.010596 1673510506.022176
6.803888 0.492613 0.010590 1673510506.027270
6.803882 0.492605 0.010584 1673510506.032218
6.803876 0.492596 0.010577 1673510506.037292
6.803871 0.492587 0.010571 1673510506.042214
6.803865 0.492578 0.010565 1673510506.047302
6.803860 0.492569 0.010559 1673510506.052225
6.803854 0.492560 0.010553 1673510506.057232
6.803849 0.492551 0.010547 1673510506.062232
6.803843 0.492542 0.010541 1673510506.067220
6.803837 0.492533 0.010535 1673510506.072209
6.803832 0.492524 0.010529 1673510506.077210
6.803826 0.492515 0.010523 1673510506.082207
6.803821 0.492506 0.010517 1673510506.087208
6.803815 0.492497 0.010511 1673510506.092174
6.803809 0.492488 0.010505 1673510506.097225
6.803804 0.492479 0.010499 1673510506.102370
6.804712 0.492904 0.010340 1673510506.109158
6.804734 0.492910 0.010332 1673510506.112193
6.804769 0.492920 0.010319 1673510506.117200
6.804804 0.492931 0.010306 1673510506.122253
6.804839 0.492941 0.010294 1673510506.127249
6.804877 0.492953 0.010280 1673510506.132740
6.804908 0.492962 0.010268 1673510506.137217
6.804944 0.492972 0.010255 1673510506.142251
6.804979 0.492983 0.010243 1673510506.147248
6.805013 0.492993 0.010230 1673510506.152222
6.805048 0.493003 0.010217 1673510506.157185
6.805083 0.493014 0.010205 1673510506.162233
6.805119 0.493024 0.010192 1673510506.167283
6.805153 0.493035 0.010179 1673510506.172219
6.805188 0.493045 0.010166 1673510506.177207
6.805223 0.493055 0.010154 1673510506.182207
6.805258 0.493066 0.010141 1673510506.187197
6.805293 0.493076 0.010128 1673510506.192203
6.805328 0.493086 0.010116 1673510506.197223
6.805364 0.493097 0.010102 1673510506.202448
6.803721 0.492499 0.010428 1673510506.207664
6.803684 0.492483 0.010430 1673510506.212208
6.803643 0.492466 0.010433 1673510506.217204
6.803602 0.492449 0.010436 1673510506.222211
6.803560 0.492432 0.010438 1673510506.227249
6.803520 0.492415 0.010441 1673510506.232253
6.803479 0.492398 0.010443 1673510506.237207
6.803438 0.492381 0.010446 1673510506.242222
6.803397 0.492363 0.010448 1673510506.247222
6.803356 0.492346 0.010451 1673510506.252227
6.803315 0.492329 0.010454 1673510506.257192
6.803274 0.492312 0.010456 1673510506.262238
6.803233 0.492295 0.010459 1673510506.267216
6.803192 0.492278 0.010461 1673510506.272210
6.803151 0.492261 0.010464 1673510506.277210
6.803110 0.492243 0.010467 1673510506.282217
6.803070 0.492226 0.010469 1673510506.287200
6.803029 0.492209 0.010472 1673510506.292180
6.802987 0.492192 0.010474 1673510506.297247
6.802932 0.492169 0.010478 1673510506.304037
6.803678 0.491979 0.010388 1673510506.309297
6.803674 0.491964 0.010387 1673510506.312196
6.803669 0.491939 0.010386 1673510506.317211
6.803663 0.491915 0.010384 1673510506.322200
6.803658 0.491889 0.010383 1673510506.327253
6.803652 0.491865 0.010381 1673510506.332236
6.803646 0.491840 0.010380 1673510506.337230
6.803641 0.491815 0.010378 1673510506.342196
6.803635 0.491790 0.010377 1673510506.347217
6.803630 0.491765 0.010375 1673510506.352216
6.803624 0.491741 0.010374 1673510506.357224
6.803619 0.491715 0.010372 1673510506.362259
6.803613 0.491691 0.010370 1673510506.367231
6.803608 0.491666 0.010369 1673510506.372271
6.803602 0.491641 0.010367 1673510506.377217
6.803596 0.491616 0.010366 1673510506.382230
6.803591 0.491591 0.010364 1673510506.387227
6.803585 0.491567 0.010363 1673510506.392215
6.803580 0.491542 0.010361 1673510506.397232
6.803574 0.491517 0.010360 1673510506.402210
6.804074 0.492517 0.010305 1673510506.408285
6.804087 0.492534 0.010302 1673510506.412218
6.804105 0.492556 0.010298 1673510506.417176
6.804123 0.492578 0.010295 1673510506.422218
6.804140 0.492600 0.010291 1673510506.427216
6.804158 0.492622 0.010287 1673510506.432194
6.804175 0.492645 0.010283 1673510506.437212
6.804193 0.492667 0.010279 1673510506.442203
6.804210 0.492689 0.010275 1673510506.447225
6.804228 0.492711 0.010271 1673510506.452226
6.804246 0.492734 0.010267 1673510506.457309
6.804263 0.492755 0.010263 1673510506.462207
6.804280 0.492778 0.010259 1673510506.467237
6.804298 0.492799 0.010255 1673510506.472186
6.804315 0.492822 0.010251 1673510506.477223
6.804333 0.492844 0.010247 1673510506.482254
6.804351 0.492866 0.010243 1673510506.487222
6.804368 0.492888 0.010240 1673510506.492214
6.804386 0.492911 0.010235 1673510506.497337
6.804409 0.492940 0.010230 1673510506.503863
6.804330 0.493255 0.010309 1673510506.508286
6.804340 0.493283 0.010308 1673510506.512206
6.804353 0.493318 0.010308 1673510506.517206
6.804366 0.493354 0.010308 1673510506.522232
6.804380 0.493390 0.010308 1673510506.527233
6.804393 0.493427 0.010308 1673510506.532443
6.804406 0.493462 0.010308 1673510506.537343
6.804419 0.493497 0.010307 1673510506.542253
6.804432 0.493533 0.010307 1673510506.547233
6.804445 0.493568 0.010307 1673510506.552197
6.804458 0.493604 0.010307 1673510506.557192
6.804472 0.493640 0.010307 1673510506.562239
6.804485 0.493676 0.010307 1673510506.567216
6.804498 0.493711 0.010306 1673510506.572195
6.804511 0.493747 0.010306 1673510506.577227
6.804524 0.493783 0.010306 1673510506.582251
6.804538 0.493819 0.010306 1673510506.587209
6.804551 0.493854 0.010306 1673510506.592191
6.804564 0.493890 0.010306 1673510506.597226
6.804577 0.493926 0.010305 1673510506.602209
6.805418 0.493718 0.010210 1673510506.612530
6.805434 0.493726 0.010208 1673510506.614196
6.805542 0.493776 0.010199 1673510506.625095
6.805544 0.493777 0.010199 1673510506.625325
6.805565 0.493787 0.010197 1673510506.627462
6.805636 0.493820 0.010190 1673510506.634623
6.805662 0.493832 0.010188 1673510506.637201
6.805712 0.493856 0.010184 1673510506.642334
6.805761 0.493879 0.010179 1673510506.647227
6.805810 0.493902 0.010175 1673510506.652201
6.805860 0.493925 0.010170 1673510506.657214
6.805910 0.493948 0.010166 1673510506.662273
6.805958 0.493971 0.010162 1673510506.667208
6.806008 0.493995 0.010157 1673510506.672251
6.806057 0.494018 0.010153 1673510506.677199
6.806107 0.494041 0.010148 1673510506.682197
6.806156 0.494064 0.010144 1673510506.687224
6.806206 0.494087 0.010140 1673510506.692222
6.806255 0.494110 0.010135 1673510506.697209
6.806305 0.494134 0.010131 1673510506.702298
6.805400 0.493220 0.010103 1673510506.713198
6.805400 0.493220 0.010103 1673510506.713255
6.805404 0.493204 0.010099 1673510506.717315
6.805408 0.493184 0.010094 1673510506.722193
6.805412 0.493165 0.010089 1673510506.727198
6.805416 0.493144 0.010084 1673510506.732343
6.805420 0.493125 0.010079 1673510506.737217
6.805424 0.493105 0.010073 1673510506.742229
6.805429 0.493085 0.010068 1673510506.747209
6.805433 0.493065 0.010063 1673510506.752303
6.805437 0.493045 0.010058 1673510506.757307
6.805441 0.493025 0.010053 1673510506.762189
6.805445 0.493005 0.010047 1673510506.767219
6.805450 0.492985 0.010042 1673510506.772223
6.805454 0.492966 0.010037 1673510506.777222
6.805458 0.492946 0.010032 1673510506.782213
6.805462 0.492926 0.010027 1673510506.787201
6.805466 0.492906 0.010021 1673510506.792200
6.805470 0.492886 0.010016 1673510506.797204
6.805475 0.492866 0.010011 1673510506.802216
6.804972 0.493268 0.009996 1673510506.810087
6.804964 0.493268 0.009993 1673510506.812173
6.804944 0.493268 0.009988 1673510506.817221
6.804925 0.493268 0.009982 1673510506.822232
6.804906 0.493269 0.009977 1673510506.827210
6.804886 0.493269 0.009971 1673510506.832228
6.804867 0.493269 0.009966 1673510506.837193
6.804847 0.493269 0.009960 1673510506.842214
6.804828 0.493269 0.009954 1673510506.847220
6.804809 0.493270 0.009949 1673510506.852210
6.804789 0.493270 0.009943 1673510506.857228
6.804770 0.493270 0.009938 1673510506.862181
6.804750 0.493270 0.009932 1673510506.867257
6.804731 0.493270 0.009927 1673510506.872226
6.804711 0.493270 0.009921 1673510506.877378
6.804692 0.493271 0.009916 1673510506.882212
6.804673 0.493271 0.009910 1673510506.887264
6.804653 0.493271 0.009905 1673510506.892223
6.804634 0.493271 0.009899 1673510506.897232
6.804615 0.493271 0.009894 1673510506.902221
6.804594 0.493272 0.009888 1673510506.907605
6.804255 0.492794 0.010038 1673510506.915243
6.804242 0.492786 0.010039 1673510506.917205
6.804209 0.492765 0.010041 1673510506.922242
6.804176 0.492744 0.010042 1673510506.927178
6.804142 0.492723 0.010044 1673510506.932251
6.804109 0.492702 0.010045 1673510506.937205
6.804076 0.492681 0.010047 1673510506.942217
6.804043 0.492660 0.010048 1673510506.947206
6.804010 0.492639 0.010050 1673510506.952193
6.803977 0.492618 0.010052 1673510506.957186
6.803943 0.492596 0.010053 1673510506.962196
6.803910 0.492575 0.010055 1673510506.967228
6.803877 0.492554 0.010056 1673510506.972208
6.803844 0.492533 0.010058 1673510506.977210
6.803811 0.492512 0.010059 1673510506.982195
6.803777 0.492491 0.010061 1673510506.987229
6.803744 0.492470 0.010063 1673510506.992202
6.803711 0.492449 0.010064 1673510506.997226
6.803678 0.492428 0.010066 1673510507.002203
6.803645 0.492407 0.010067 1673510507.007223
6.804019 0.492599 0.010115 1673510507.013352
6.804008 0.492590 0.010117 1673510507.017229
6.803994 0.492579 0.010121 1673510507.022186
6.803979 0.492568 0.010125 1673510507.027183
6.803965 0.492556 0.010128 1673510507.032298
6.803951 0.492545 0.010132 1673510507.037189
6.803936 0.492534 0.010136 1673510507.042202
6.803922 0.492523 0.010139 1673510507.047228
6.803908 0.492512 0.010143 1673510507.052221
6.803894 0.492501 0.010147 1673510507.057214
6.803879 0.492490 0.010150 1673510507.062243
6.803865 0.492479 0.010154 1673510507.067217
6.803851 0.492467 0.010157 1673510507.072189
6.803837 0.492456 0.010161 1673510507.077199
6.803823 0.492445 0.010165 1673510507.082172
6.803808 0.492434 0.010168 1673510507.087204
6.803794 0.492423 0.010172 1673510507.092204
6.803770 0.492404 0.010178 1673510507.100762
6.803765 0.492401 0.010179 1673510507.102238
6.803751 0.492389 0.010183 1673510507.107213
6.803457 0.491903 0.010179 1673510507.113459
6.803437 0.491878 0.010181 1673510507.117197
6.803410 0.491846 0.010185 1673510507.122208
6.803383 0.491812 0.010188 1673510507.127239
6.803356 0.491780 0.010191 1673510507.132238
6.803329 0.491747 0.010194 1673510507.137225
6.803302 0.491714 0.010198 1673510507.142197
6.803275 0.491681 0.010201 1673510507.147188
6.803248 0.491648 0.010204 1673510507.152194
6.803221 0.491616 0.010207 1673510507.157195
6.803194 0.491583 0.010211 1673510507.162213
6.803167 0.491550 0.010214 1673510507.167172
6.803140 0.491517 0.010217 1673510507.172212
6.803113 0.491484 0.010220 1673510507.177217
6.803086 0.491451 0.010224 1673510507.182195
6.803059 0.491418 0.010227 1673510507.187214
6.803032 0.491385 0.010230 1673510507.192243
6.803005 0.491353 0.010233 1673510507.197223
6.802978 0.491320 0.010237 1673510507.202200
6.802951 0.491287 0.010240 1673510507.207237
6.803143 0.491188 0.009939 1673510507.213985
6.803133 0.491166 0.009932 1673510507.217184
6.803116 0.491130 0.009921 1673510507.222178
6.803100 0.491095 0.009910 1673510507.227214
6.803084 0.491059 0.009899 1673510507.232194
6.803067 0.491024 0.009888 1673510507.237198
6.803051 0.490989 0.009877 1673510507.242225
6.803034 0.490953 0.009866 1673510507.247237
6.803018 0.490918 0.009856 1673510507.252234
6.803001 0.490882 0.009845 1673510507.257287
6.802985 0.490847 0.009834 1673510507.262221
6.802969 0.490812 0.009823 1673510507.267207
6.802952 0.490776 0.009812 1673510507.272300
6.802936 0.490741 0.009801 1673510507.277197
6.802919 0.490706 0.009791 1673510507.282235
6.802903 0.490670 0.009780 1673510507.287216
6.802886 0.490635 0.009769 1673510507.292282
6.802870 0.490600 0.009758 1673510507.297200
6.802853 0.490564 0.009747 1673510507.302230
6.802837 0.490529 0.009736 1673510507.307261
6.803577 0.492617 0.009642 1673510507.316448
6.803580 0.492627 0.009640 1673510507.317179
6.803598 0.492689 0.009626 1673510507.322206
6.803617 0.492752 0.009611 1673510507.327220
6.803636 0.492814 0.009597 1673510507.332209
6.803654 0.492877 0.009583 1673510507.337200
6.803673 0.492940 0.009569 1673510507.342281
6.803691 0.493002 0.009554 1673510507.347251
6.803710 0.493065 0.009540 1673510507.352227
6.803728 0.493127 0.009526 1673510507.357239
6.803747 0.493190 0.009512 1673510507.362217
6.803765 0.493252 0.009498 1673510507.367187
6.803784 0.493314 0.009484 1673510507.372179
6.803803 0.493377 0.009469 1673510507.377207
6.803821 0.493440 0.009455 1673510507.382257
6.803840 0.493502 0.009441 1673510507.387205
6.803858 0.493565 0.009427 1673510507.392217
6.803877 0.493627 0.009412 1673510507.397195
6.803895 0.493689 0.009398 1673510507.402200
6.803914 0.493752 0.009384 1673510507.407200
6.803737 0.493353 0.009579 1673510507.417814
6.803737 0.493353 0.009579 1673510507.417902
6.803744 0.493386 0.009575 1673510507.422208
6.803753 0.493425 0.009571 1673510507.427211
6.803762 0.493464 0.009567 1673510507.432272
6.803771 0.493502 0.009563 1673510507.437248
6.803780 0.493540 0.009559 1673510507.442244
6.803788 0.493579 0.009555 1673510507.447234
6.803797 0.493617 0.009551 1673510507.452195
6.803806 0.493655 0.009547 1673510507.457211
6.803815 0.493694 0.009543 1673510507.462204
6.803823 0.493733 0.009539 1673510507.467244
6.803832 0.493771 0.009535 1673510507.472260
6.803841 0.493810 0.009531 1673510507.477252
6.803850 0.493847 0.009527 1673510507.482182
6.803858 0.493886 0.009523 1673510507.487194
6.803867 0.493925 0.009518 1673510507.492253
6.803876 0.493963 0.009514 1673510507.497241
6.803885 0.494001 0.009510 1673510507.502206
6.803893 0.494040 0.009506 1673510507.507220
6.803902 0.494078 0.009502 1673510507.512213
6.803727 0.493396 0.009654 1673510507.519722
6.803727 0.493399 0.009655 1673510507.522200
6.803727 0.493404 0.009658 1673510507.527179
6.803728 0.493410 0.009662 1673510507.532207
6.803728 0.493415 0.009665 1673510507.537292
6.803728 0.493420 0.009668 1673510507.542257
6.803729 0.493426 0.009671 1673510507.547206
6.803729 0.493431 0.009674 1673510507.552195
6.803729 0.493436 0.009677 1673510507.557281
6.803730 0.493442 0.009680 1673510507.562196
6.803730 0.493447 0.009683 1673510507.567271
6.803730 0.493452 0.009686 1673510507.572242
6.803731 0.493457 0.009689 1673510507.577191
6.803731 0.493463 0.009692 1673510507.582196
6.803731 0.493468 0.009695 1673510507.587218
6.803732 0.493474 0.009698 1673510507.592286
6.803732 0.493479 0.009701 1673510507.597208
6.803732 0.493484 0.009704 1673510507.602232
6.803733 0.493489 0.009707 1673510507.607236
6.803733 0.493495 0.009710 1673510507.612240
6.803377 0.493248 0.010006 1673510507.621954
6.803377 0.493247 0.010007 1673510507.622162
6.803361 0.493241 0.010023 1673510507.627217
6.803346 0.493235 0.010038 1673510507.632189
6.803330 0.493229 0.010054 1673510507.637191
6.803315 0.493223 0.010070 1673510507.642204
6.803299 0.493217 0.010086 1673510507.647211
6.803284 0.493211 0.010102 1673510507.652186
6.803269 0.493205 0.010118 1673510507.657188
6.803253 0.493199 0.010134 1673510507.662205
6.803238 0.493192 0.010150 1673510507.667215
6.803222 0.493186 0.010165 1673510507.672240
6.803207 0.493180 0.010181 1673510507.677211
6.803191 0.493174 0.010197 1673510507.682198
6.803176 0.493168 0.010213 1673510507.687194
6.803160 0.493162 0.010229 1673510507.692212
6.803145 0.493156 0.010245 1673510507.697206
6.803129 0.493150 0.010261 1673510507.702239
6.803114 0.493144 0.010276 1673510507.707217
6.803098 0.493138 0.010292 1673510507.712270
6.803533 0.492842 0.010197 1673510507.720111
6.803536 0.492834 0.010201 1673510507.722198
6.803541 0.492815 0.010212 1673510507.727202
6.803546 0.492796 0.010222 1673510507.732261
6.803552 0.492777 0.010233 1673510507.737236
6.803557 0.492758 0.010243 1673510507.742219
6.803562 0.492739 0.010253 1673510507.747192
6.803568 0.492720 0.010264 1673510507.752189
6.803573 0.492701 0.010274 1673510507.757229
6.803579 0.492682 0.010285 1673510507.762211
6.803584 0.492663 0.010295 1673510507.767231
6.803589 0.492644 0.010305 1673510507.772222
6.803595 0.492625 0.010316 1673510507.777215
6.803600 0.492606 0.010326 1673510507.782189
6.803605 0.492587 0.010337 1673510507.787195
6.803611 0.492568 0.010347 1673510507.792225
6.803616 0.492549 0.010357 1673510507.797213
6.803622 0.492530 0.010368 1673510507.802247
6.803627 0.492510 0.010378 1673510507.807260
6.803632 0.492492 0.010389 1673510507.812237
6.804584 0.492827 0.010423 1673510507.818330
6.804622 0.492825 0.010432 1673510507.822224
6.804671 0.492823 0.010443 1673510507.827214
6.804720 0.492820 0.010455 1673510507.832227
6.804770 0.492818 0.010466 1673510507.837225
6.804822 0.492815 0.010478 1673510507.842505
6.804868 0.492813 0.010489 1673510507.847213
6.804918 0.492811 0.010501 1673510507.852280
6.804967 0.492808 0.010512 1673510507.857204
6.805016 0.492806 0.010524 1673510507.862242
6.805066 0.492804 0.010535 1673510507.867287
6.805115 0.492801 0.010546 1673510507.872227
6.805164 0.492799 0.010558 1673510507.877206
6.805213 0.492797 0.010569 1673510507.882215
6.805263 0.492794 0.010581 1673510507.887247
6.805312 0.492792 0.010592 1673510507.892226
6.805361 0.492789 0.010603 1673510507.897227
6.805410 0.492787 0.010615 1673510507.902238
6.805459 0.492785 0.010626 1673510507.907222
6.805509 0.492782 0.010638 1673510507.912218
6.804988 0.492702 0.010565 1673510507.919781
6.804998 0.492699 0.010569 1673510507.922202
6.805020 0.492694 0.010576 1673510507.927214
6.805042 0.492688 0.010584 1673510507.932212
6.805064 0.492682 0.010591 1673510507.937193
6.805086 0.492676 0.010598 1673510507.942212
6.805108 0.492670 0.010606 1673510507.947262
6.805129 0.492664 0.010613 1673510507.952203
6.805151 0.492658 0.010620 1673510507.957203
6.805173 0.492652 0.010627 1673510507.962259
6.805194 0.492646 0.010635 1673510507.967224
6.805216 0.492640 0.010642 1673510507.972238
6.805238 0.492634 0.010649 1673510507.977214
6.805260 0.492629 0.010656 1673510507.982205
6.805281 0.492623 0.010664 1673510507.987220
6.805303 0.492617 0.010671 1673510507.992212
6.805325 0.492611 0.010678 1673510507.997172
6.805347 0.492605 0.010686 1673510508.002245
6.805369 0.492599 0.010693 1673510508.007238
6.805390 0.492593 0.010700 1673510508.012204
6.805325 0.493472 0.010366 1673510508.022477
6.805332 0.493487 0.010362 1673510508.024621
6.805341 0.493505 0.010358 1673510508.027221
6.805358 0.493539 0.010349 1673510508.032199
6.805374 0.493574 0.010340 1673510508.037199
6.805391 0.493608 0.010332 1673510508.042210
6.805408 0.493643 0.010323 1673510508.047207
6.805425 0.493677 0.010315 1673510508.052213
6.805442 0.493712 0.010306 1673510508.057217
6.805458 0.493746 0.010297 1673510508.062197
6.805475 0.493781 0.010289 1673510508.067215
6.805492 0.493816 0.010280 1673510508.072232
6.805509 0.493850 0.010272 1673510508.077225
6.805526 0.493885 0.010263 1673510508.082271
6.805542 0.493919 0.010254 1673510508.087201
6.805559 0.493954 0.010246 1673510508.092219
6.805576 0.493988 0.010237 1673510508.097220
6.805593 0.494023 0.010229 1673510508.102235
6.805609 0.494058 0.010220 1673510508.107229
6.805626 0.494092 0.010211 1673510508.112228
6.805643 0.494127 0.010203 1673510508.117225
6.804109 0.493263 0.010388 1673510508.125907
6.804096 0.493261 0.010388 1673510508.127197
6.804043 0.493255 0.010388 1673510508.132258
6.803991 0.493248 0.010389 1673510508.137192
6.803938 0.493242 0.010389 1673510508.142213
6.803885 0.493236 0.010389 1673510508.147230
6.803832 0.493229 0.010390 1673510508.152251
6.803780 0.493223 0.010390 1673510508.157273
6.803728 0.493216 0.010390 1673510508.162205
6.803675 0.493210 0.010390 1673510508.167224
6.803622 0.493203 0.010391 1673510508.172217
6.803570 0.493197 0.010391 1673510508.177213
6.803517 0.493190 0.010391 1673510508.182235
6.803464 0.493184 0.010392 1673510508.187231
6.803412 0.493178 0.010392 1673510508.192225
6.803360 0.493171 0.010392 1673510508.197202
6.803307 0.493165 0.010393 1673510508.202216
6.803254 0.493158 0.010393 1673510508.207212
6.803202 0.493152 0.010393 1673510508.212226
6.803147 0.493145 0.010393 1673510508.217374
6.802806 0.493469 0.010501 1673510508.225937
6.802788 0.493471 0.010502 1673510508.227348
