# .PCD v0.7 - Point Cloud Data file format
VERSION 0.7
FIELDS x y z
SIZE 4 4 4
TYPE F F F
COUNT 1 1 1
WIDTH 64
HEIGHT 1
VIEWPOINT 0 0 0 1 0 0 0
POINTS 64
DATA ascii
1.3335302 6.8221626 -0.30292943
1.1353827 6.880939 -0.39852729
1.098127 6.8943667 -0.39123407
1.2518333 6.8574824 -0.30645451
1.2284901 6.868917 -0.39610484
1.1039847 6.8703837 -0.40070334
1.5853884 6.7556067 -0.19347355
1.2461553 6.8523684 -0.3724657
1.1865226 6.852397 -0.30242911
1.1937726 6.8924608 -0.37410352
1.6018043 6.7534428 -0.16566458
1.5199155 6.8312521 -0.3260664
1.2162459 6.8794184 -0.29487559
1.534978 6.7648158 -0.38816759
1.5983353 6.7571969 -0.39797428
1.2162204 6.8532786 -0.28857639
1.4876127 6.827702 -0.3278099
1.4349813 6.8359799 -0.27792183
1.4096532 6.7991114 -0.31045339
1.423033 6.8400888 -0.35688862
1.1967103 6.8873491 -0.37211147
1.1992334 6.8445268 -0.37437627
1.2035687 6.8944421 -0.37290826
1.5310109 6.8116484 -0.23717657
1.3899585 6.8511853 -0.28927544
1.3968025 6.7861366 -0.21663633
1.612711 6.7269602 -0.27286324
1.4423665 6.7718105 -0.3039377
1.4678228 6.7938361 -0.28302571
1.4912388 6.760757 -0.29708627
1.4165548 6.8356571 -0.36323205
1.3505967 6.7956929 -0.33015385
1.4713478 6.788641 -0.30312124
1.0931776 6.8879032 -0.39823732
1.5324063 6.7788849 -0.33030757
1.1054155 6.8604579 -0.39264187
1.1970035 6.8672032 -0.31865934
1.5546217 6.75807 -0.30872026
1.524139 6.7602587 -0.32520857
1.3362764 6.8024344 -0.33236566
1.2766629 6.8102717 -0.34944627
1.384562 6.7833014 -0.306802
1.4064075 6.8336301 -0.35556641
1.2500383 6.8453507 -0.31953701
1.5981638 6.783689 -0.35169193
1.3173193 6.8100405 -0.33229503
1.3822966 6.8223586 -0.29853603
1.5961666 6.7556643 -0.1964483
1.5071844 6.8070583 -0.33056435
1.2781211 6.8625655 -0.27882656
1.3077801 6.794714 -0.30845705
1.1925372 6.8947973 -0.33688501
1.5499202 6.7532415 -0.3029047
1.5860541 6.7421656 -0.17436787
1.3150231 6.7929301 -0.33027926
1.2191252 6.8202567 -0.27426001
1.5940871 6.7571921 -0.16668549
1.5312892 6.7854643 -0.30461964
1.3969989 6.7979164 -0.31565741
1.5119538 6.8028903 -0.33704081
1.2031963 6.8497882 -0.32231006
1.5352886 6.8223009 -0.32003519
1.1931651 6.8598857 -0.37820485
1.1430454 6.8797755 -0.40248516
